ply
format ascii 1.0
element vertex 1249
property float x
property float y
property float z
property uchar red
property uchar green
property uchar blue
end_header
0.075930 0.691321 -0.326718 0 127 127
-0.292071 -0.128861 0.082196 0 127 127
-0.288932 0.858349 -0.086138 0 127 127
0.033466 0.197526 0.373192 76 0 153
-0.292071 0.112405 0.160784 0 127 127
0.238411 0.362087 0.116733 0 127 127
0.119136 -0.915703 0.320969 127 0 127
0.308782 -0.127093 -0.121140 0 127 127
0.287315 -0.575663 0.289382 0 127 127
0.264258 0.619872 -0.233174 0 127 127
-0.292946 0.001340 -0.133188 0 127 127
0.287071 -0.215747 -0.034512 0 127 127
-0.312192 0.066457 -0.286379 0 127 127
0.287213 -0.834102 -0.114522 0 127 127
-0.005095 -0.377410 -0.197664 0 127 127
0.139389 0.858349 0.271175 0 127 127
0.287071 -0.778436 0.061775 0 127 127
0.166874 0.858349 -0.144234 0 127 127
0.057213 0.858349 -0.141316 0 127 127
-0.311150 0.561019 0.172946 0 127 127
-0.092375 0.657962 -0.326718 0 127 127
0.271335 -0.885478 0.321777 0 127 127
0.287071 0.161971 0.246267 0 127 127
0.306150 0.363519 -0.088328 0 127 127
0.149534 0.316400 -0.318824 0 127 127
0.309431 0.269073 -0.011607 0 127 127
0.146450 -0.027107 -0.197027 0 127 127
-0.284261 0.785059 0.347377 76 0 153
-0.046376 0.858349 -0.038954 0 127 127
-0.273359 -0.918981 0.250953 127 0 127
-0.107047 0.874151 -0.167008 0 127 127
-0.292055 0.029200 -0.146611 0 127 127
-0.136141 -0.880820 -0.106334 0 127 127
-0.314431 -0.100861 0.114875 0 127 127
0.306150 0.830695 -0.050030 0 127 127
-0.314431 -0.193137 0.043175 0 127 127
0.306150 0.745102 0.332788 76 0 153
0.309399 -0.079561 -0.063710 0 127 127
-0.292071 -0.470957 -0.013815 0 127 127
-0.232133 0.362087 0.101091 0 127 127
-0.088879 0.362087 0.068204 0 127 127
0.287355 0.129369 0.291718 0 127 127
0.306081 0.097750 0.316733 0 127 127
0.171256 -0.880820 0.183144 0 127 127
0.274241 -0.861800 0.242113 0 127 127
-0.061856 0.185459 0.372539 76 0 153
-0.041273 0.351381 0.081813 0 127 127
0.127512 -0.266484 -0.197027 0 127 127
-0.292911 -0.351888 0.129357 0 127 127
0.305961 0.353698 0.141894 0 127 127
-0.314384 0.307626 -0.186839 0 127 127
0.272072 0.362087 0.175969 0 127 127
-0.113652 -0.561401 0.369643 76 0 153
0.287084 0.269502 0.035982 0 127 127
-0.314431 0.229361 0.213121 0 127 127
-0.042173 0.362087 0.211344 0 127 127
-0.278989 -0.767034 -0.181672 0 127 127
-0.292071 -0.627019 0.115175 0 127 127
0.287071 -0.139761 -0.028636 0 127 127
-0.314428 -0.171619 -0.246861 0 127 127
0.223609 -0.880367 0.098527 0 127 127
-0.314431 0.197694 -0.155511 0 127 127
-0.292070 -0.811019 0.217136 0 127 127
0.309399 -0.468512 0.055460 0 127 127
-0.063575 0.334579 0.008783 0 127 127
0.309431 -0.730103 0.137103 0 127 127
0.309431 -0.572618 -0.090136 0 127 127
0.044303 0.600453 0.373009 76 0 153
-0.295349 0.771319 0.092022 0 127 127
0.306150 0.529038 0.197823 0 127 127
0.271387 0.668580 -0.315543 0 127 127
-0.113633 0.858349 -0.083805 0 127 127
0.218042 0.090020 0.357627 76 0 153
0.309431 0.001694 0.093871 0 127 127
0.309431 -0.757878 0.066382 0 127 127
-0.212674 -0.191440 0.359221 76 0 153
-0.311150 0.435309 0.032628 0 127 127
0.134210 0.279644 0.367472 76 0 153
-0.171113 -0.884640 0.311554 0 127 127
0.184265 0.338277 0.310624 0 127 127
-0.295349 0.572982 -0.107373 0 127 127
0.309431 -0.404888 -0.041727 0 127 127
0.273979 -0.820194 0.348373 76 0 153
0.309431 -0.395146 -0.074502 0 127 127
-0.002134 -0.597374 0.373796 76 0 153
0.306150 0.414519 0.225168 0 127 127
0.309322 -0.885929 0.020126 0 127 127
0.290349 0.688115 -0.027968 0 127 127
0.284527 -0.930582 0.160213 127 0 127
0.268487 -0.837556 -0.320442 0 127 127
0.309431 -0.703652 -0.126582 0 127 127
-0.222732 0.170795 0.357675 76 0 153
-0.314431 -0.499336 -0.006953 0 127 127
0.191365 0.852244 -0.233174 0 127 127
-0.295349 0.383174 0.124294 0 127 127
-0.256616 0.579152 0.352465 76 0 153
-0.052145 0.360348 -0.289848 0 127 127
-0.292071 -0.199063 0.241981 0 127 127
0.285048 0.003793 -0.154357 0 127 127
0.309431 -0.789110 -0.098010 0 127 127
0.087599 -0.129702 0.370975 76 0 153
0.287071 -0.737811 0.024810 0 127 127
-0.309433 0.719167 -0.289482 0 127 127
-0.314430 0.291461 0.189954 0 127 127
0.309431 -0.200062 0.129651 0 127 127
-0.293069 -0.455876 0.221779 0 127 127
0.306150 0.716402 0.205261 0 127 127
-0.311150 0.630247 -0.165402 0 127 127
-0.314431 -0.257130 0.254389 0 127 127
0.003884 0.874151 -0.247151 0 127 127
-0.010060 -0.795964 -0.329997 0 127 127
0.259904 -0.579633 -0.324773 0 127 127
-0.037919 0.278162 0.373202 76 0 153
-0.276387 0.471338 -0.309059 0 127 127
0.306150 0.415654 -0.217700 0 127 127
-0.311150 0.817637 -0.224584 0 127 127
-0.088446 0.706648 -0.326718 0 127 127
0.306150 0.746269 -0.276805 0 127 127
-0.002818 -0.918983 0.241223 127 0 127
-0.314431 -0.389265 0.123339 0 127 127
0.081949 0.373122 0.371262 76 0 153
0.287071 0.038703 0.161724 0 127 127
0.223171 0.858349 -0.094912 0 127 127
0.042240 0.656248 -0.233174 0 127 127
-0.074428 0.676905 -0.326718 0 127 127
-0.124444 0.351552 -0.040329 0 127 127
0.309431 -0.479365 -0.110080 0 127 127
-0.253032 0.530824 -0.233174 0 127 127
-0.137263 0.463287 -0.233174 0 127 127
-0.191636 -0.787344 -0.197027 0 127 127
-0.022933 -0.332628 0.373456 76 0 153
0.036701 0.839388 -0.320347 0 127 127
-0.095510 -0.881094 0.165455 0 127 127
-0.292071 -0.181202 0.081500 0 127 127
0.243751 -0.322187 0.353674 76 0 153
0.249705 0.362087 -0.071289 0 127 127
0.290349 0.833665 0.210393 0 127 127
-0.314431 -0.157107 0.241892 0 127 127
-0.114718 0.856773 0.369553 76 0 153
-0.294993 0.752678 -0.233174 0 127 127
-0.198717 0.133341 0.361010 76 0 153
0.004675 -0.918983 -0.198000 127 0 127
0.090860 -0.881048 0.078405 0 127 127
0.246412 0.874151 0.251879 0 127 127
-0.284853 -0.292666 -0.173702 0 127 127
0.040631 0.874151 0.064544 0 127 127
-0.314431 -0.273799 0.105373 0 127 127
0.309431 -0.200439 0.076226 0 127 127
0.131316 0.715174 0.367718 76 0 153
0.309431 -0.456108 -0.174060 0 127 127
-0.269877 -0.427268 -0.323039 0 127 127
0.290349 0.634625 -0.099765 0 127 127
0.111466 -0.940495 -0.268226 127 0 127
-0.292829 -0.086174 -0.080096 0 127 127
0.306150 0.467121 0.109354 0 127 127
-0.181025 -0.694413 0.363118 76 0 153
0.076711 0.874151 0.106628 0 127 127
0.309403 -0.232504 0.014598 0 127 127
-0.243238 0.858349 -0.110164 0 127 127
-0.156338 0.351475 0.286157 0 127 127
0.308610 -0.296304 0.104410 0 127 127
-0.299302 -0.818675 0.317931 0 127 127
-0.306942 0.598062 -0.289848 0 127 127
0.031500 0.362087 -0.019320 0 127 127
0.265762 0.031793 -0.189512 0 127 127
-0.138628 0.623129 -0.326718 0 127 127
0.306150 0.420835 0.020691 0 127 127
-0.212202 0.242087 0.359294 76 0 153
0.290349 0.650167 -0.022679 0 127 127
-0.111120 -0.009484 -0.329997 0 127 127
-0.292167 -0.826904 -0.115127 0 127 127
-0.002763 0.351552 0.197916 0 127 127
-0.290996 -0.557300 -0.148458 0 127 127
-0.314431 -0.853792 0.237061 0 127 127
0.308428 -0.364263 0.120212 0 127 127
0.139479 0.744127 -0.233174 0 127 127
0.309431 -0.039785 -0.005182 0 127 127
0.154847 0.351672 0.213036 0 127 127
0.306150 0.649796 0.051572 0 127 127
0.306150 0.598835 -0.010084 0 127 127
-0.314431 -0.405803 -0.053256 0 127 127
-0.105501 -0.751094 -0.329997 0 127 127
0.015750 -0.918983 0.200766 127 0 127
-0.310466 0.296477 0.341172 76 0 153
0.214462 -0.597471 -0.197060 0 127 127
0.090178 0.858349 0.208116 0 127 127
-0.049155 -0.222575 -0.329997 0 127 127
-0.311150 0.801712 0.018436 0 127 127
0.180534 0.028604 0.362581 76 0 153
-0.285682 0.305705 0.159665 0 127 127
0.023264 0.362087 0.316328 0 127 127
0.092375 -0.833839 -0.329997 0 127 127
0.306150 -0.234668 0.337285 76 0 153
0.105859 -0.761496 0.369881 76 0 153
-0.314352 -0.302621 -0.256600 0 127 127
0.228169 -0.918983 -0.101943 127 0 127
0.188480 0.334579 0.056525 0 127 127
-0.314431 0.112203 -0.131895 0 127 127
-0.208117 -0.728155 -0.329997 0 127 127
-0.314167 -0.809451 0.297006 0 127 127
-0.095506 0.086298 -0.197914 0 127 127
-0.040870 0.003032 0.373151 76 0 153
-0.274628 -0.685557 -0.319888 0 127 127
0.287071 -0.050642 0.110256 0 127 127
-0.268182 -0.385840 -0.323666 0 127 127
0.309059 -0.006583 -0.146967 0 127 127
-0.010592 0.858349 0.061149 0 127 127
-0.314428 0.300546 -0.013110 0 127 127
0.048544 0.351672 0.138738 0 127 127
0.016460 0.351672 -0.214125 0 127 127
-0.015405 0.874151 -0.221571 0 127 127
0.006759 0.334579 -0.035201 0 127 127
-0.292747 -0.663234 0.278362 0 127 127
0.286529 0.350116 -0.078068 0 127 127
-0.295349 0.821698 -0.009551 0 127 127
-0.314431 -0.467349 -0.042879 0 127 127
-0.212344 -0.900769 -0.302565 0 127 127
-0.165687 0.078997 -0.329997 0 127 127
-0.314431 -0.361525 0.141223 0 127 127
-0.311150 0.382355 0.090116 0 127 127
0.008665 -0.918983 0.090131 127 0 127
-0.263288 -0.004726 -0.325471 0 127 127
0.249933 0.874151 0.019884 0 127 127
-0.314431 -0.703620 0.012494 0 127 127
0.287257 -0.650668 0.286050 0 127 127
-0.090746 0.340777 0.371069 76 0 153
-0.284831 0.350444 0.121002 0 127 127
-0.293069 -0.159772 -0.096597 0 127 127
0.122673 -0.564740 0.368452 76 0 153
-0.220310 0.858349 0.196273 0 127 127
0.003649 0.858349 0.157100 0 127 127
-0.127633 -0.880820 -0.081344 0 127 127
0.290349 0.541571 0.270773 0 127 127
0.309073 -0.827316 -0.269116 0 127 127
-0.292928 -0.407098 0.152287 0 127 127
0.287071 -0.046834 -0.044166 0 127 127
0.287071 -0.762789 0.110261 0 127 127
-0.112964 0.700235 0.369702 76 0 153
0.309067 -0.347234 0.037961 0 127 127
-0.308265 0.752688 0.342812 76 0 153
0.039706 0.849929 -0.289848 0 127 127
0.168938 -0.898627 0.363963 76 0 153
-0.157766 -0.880884 0.278769 0 127 127
0.282573 0.454102 0.346752 76 0 153
0.306150 0.378864 -0.136346 0 127 127
-0.292775 -0.518412 0.182827 0 127 127
0.287071 -0.517948 0.247337 0 127 127
-0.311150 0.568037 -0.210604 0 127 127
-0.229927 0.858349 0.167464 0 127 127
0.286798 -0.799383 -0.143414 0 127 127
-0.198385 0.334579 0.266611 0 127 127
-0.290300 0.213973 -0.152933 0 127 127
0.251306 0.874151 0.114417 0 127 127
0.287070 -0.774947 0.264675 0 127 127
-0.314431 -0.694799 0.181540 0 127 127
0.257006 -0.718373 -0.325839 0 127 127
-0.292799 -0.326480 0.106188 0 127 127
-0.311150 0.813193 -0.277303 0 127 127
-0.311150 0.558001 0.270560 0 127 127
-0.292071 -0.796877 0.047645 0 127 127
0.271387 0.771688 -0.291410 0 127 127
0.308477 0.036250 -0.268447 0 127 127
0.290349 0.690607 -0.148596 0 127 127
0.287071 -0.680496 0.223323 0 127 127
0.172458 -0.839702 0.363543 76 0 153
0.282740 0.075235 -0.168766 0 127 127
-0.172956 -0.772436 -0.329997 0 127 127
-0.295349 0.638673 -0.085772 0 127 127
0.309295 -0.392137 -0.258855 0 127 127
0.253748 0.839388 -0.298711 0 127 127
-0.108813 0.443865 -0.233174 0 127 127
0.290349 0.640815 0.136857 0 127 127
-0.311150 0.518285 -0.216520 0 127 127
0.071123 -0.757993 -0.329997 0 127 127
0.309431 -0.531193 0.036137 0 127 127
-0.054635 0.362087 -0.033194 0 127 127
-0.039498 -0.877929 -0.157748 0 127 127
-0.000717 0.362087 -0.168577 0 127 127
-0.251022 0.706614 -0.326718 0 127 127
0.096975 -0.642114 -0.329997 0 127 127
-0.162873 0.175825 -0.329997 0 127 127
0.279643 0.858349 0.280672 0 127 127
-0.260368 0.361079 -0.289848 0 127 127
-0.258402 -0.118234 -0.327273 0 127 127
-0.292086 -0.361827 -0.130115 0 127 127
-0.314430 -0.436850 -0.229581 0 127 127
-0.295349 0.424751 0.270904 0 127 127
-0.314431 -0.037149 -0.134495 0 127 127
0.275496 0.350839 -0.001613 0 127 127
0.074037 0.848875 -0.289848 0 127 127
-0.252748 0.826793 -0.233174 0 127 127
0.132828 -0.881529 0.038807 0 127 127
0.284527 -0.938986 0.307303 127 0 127
-0.155639 0.416069 0.366076 76 0 153
-0.314431 -0.257371 0.076127 0 127 127
-0.164311 0.622586 -0.326718 0 127 127
0.309431 -0.627351 0.005160 0 127 127
0.287275 -0.485565 0.287105 0 127 127
0.132583 -0.880820 0.230180 0 127 127
-0.216914 0.362087 -0.172060 0 127 127
0.290349 0.385480 0.039233 0 127 127
0.276136 0.552771 0.347966 76 0 153
-0.282633 0.362087 0.049393 0 127 127
-0.290044 0.737388 -0.289848 0 127 127
-0.011547 -0.095892 -0.329997 0 127 127
-0.112179 -0.172300 -0.197027 0 127 127
-0.283420 0.246881 -0.175436 0 127 127
0.309431 0.184958 0.169226 0 127 127
0.027078 0.512891 0.373301 76 0 153
-0.167052 0.304226 -0.325730 0 127 127
0.005644 0.190499 -0.197598 0 127 127
-0.177795 0.334579 0.203841 0 127 127
-0.195268 -0.429533 -0.329997 0 127 127
0.266157 -0.102113 -0.189347 0 127 127
-0.181058 0.874045 0.333101 76 0 153
-0.033240 -0.806892 -0.329997 0 127 127
0.309431 0.168714 -0.004841 0 127 127
-0.210036 0.874151 -0.064816 0 127 127
0.307519 -0.027821 -0.281057 0 127 127
-0.292071 -0.111653 0.236139 0 127 127
0.230589 0.635117 0.355698 76 0 153
-0.311150 0.655208 0.222298 0 127 127
-0.137387 0.858349 0.179364 0 127 127
-0.292154 -0.825113 0.097335 0 127 127
-0.292584 -0.199214 -0.006127 0 127 127
0.287071 -0.103658 0.105897 0 127 127
0.287071 -0.502573 0.222699 0 127 127
-0.158990 0.595757 -0.233174 0 127 127
0.233582 0.380066 -0.233174 0 127 127
0.056062 0.713151 0.372579 76 0 153
0.114262 0.306025 -0.194447 0 127 127
-0.314431 -0.202853 0.114822 0 127 127
-0.156493 -0.004707 -0.329997 0 127 127
0.306150 0.708929 -0.120372 0 127 127
-0.196049 0.587233 0.361328 76 0 153
-0.292071 -0.788302 -0.093013 0 127 127
-0.047690 0.748136 -0.233174 0 127 127
-0.072542 -0.128308 0.371995 76 0 153
-0.314431 -0.206145 -0.191061 0 127 127
0.051556 0.408506 -0.326718 0 127 127
-0.292071 -0.721345 0.167888 0 127 127
0.178072 -0.870353 0.362874 76 0 153
-0.295349 0.523422 0.107896 0 127 127
-0.292071 -0.564929 -0.070116 0 127 127
-0.276387 0.675969 -0.323618 0 127 127
0.290349 0.530006 -0.135009 0 127 127
-0.314431 -0.288176 -0.120003 0 127 127
-0.273984 0.351552 0.253598 0 127 127
0.231323 0.523311 -0.326718 0 127 127
0.309431 -0.047939 0.205185 0 127 127
-0.139241 0.362087 0.226764 0 127 127
-0.303010 -0.916044 0.103427 0 127 127
0.309431 0.118623 0.171748 0 127 127
-0.125237 -0.918983 -0.235615 127 0 127
-0.292071 -0.796382 0.149876 0 127 127
-0.046532 -0.918983 0.023322 127 0 127
0.133984 0.334513 -0.142425 0 127 127
0.287071 -0.602954 -0.010328 0 127 127
0.290349 0.797162 -0.108175 0 127 127
-0.314431 0.182271 -0.055527 0 127 127
0.206885 -0.881241 -0.087023 0 127 127
0.029821 -0.009147 -0.197308 0 127 127
-0.072387 -0.580155 -0.329997 0 127 127
-0.314431 0.119052 0.255726 0 127 127
0.302832 -0.523872 -0.291439 0 127 127
-0.292568 -0.433332 0.122208 0 127 127
-0.267951 -0.624778 -0.323750 0 127 127
-0.081559 0.810653 0.371536 76 0 153
-0.295349 0.638616 -0.201344 0 127 127
-0.094766 -0.100584 0.370864 76 0 153
-0.311150 0.782253 0.145761 0 127 127
0.210540 -0.231020 -0.197027 0 127 127
0.208596 0.351552 0.217961 0 127 127
0.085996 0.612036 -0.233174 0 127 127
-0.314268 -0.357396 -0.260620 0 127 127
0.266066 -0.867281 0.083295 0 127 127
-0.074549 0.298125 0.371893 76 0 153
0.309431 -0.137857 0.090519 0 127 127
-0.292071 -0.061679 0.026219 0 127 127
0.309431 0.137618 -0.064749 0 127 127
-0.292658 -0.589771 0.207026 0 127 127
0.042197 -0.602807 0.373044 76 0 153
-0.264056 0.643842 -0.326718 0 127 127
-0.311150 0.576011 0.035986 0 127 127
0.306150 0.675328 0.096604 0 127 127
0.306150 0.629236 0.213119 0 127 127
0.281216 -0.081711 0.347008 76 0 153
-0.236677 0.839388 -0.304543 0 127 127
0.003016 0.858349 0.192300 0 127 127
0.292862 0.496883 0.344811 76 0 153
-0.061373 0.858349 0.032951 0 127 127
0.309431 -0.644851 0.064910 0 127 127
0.306150 0.846454 0.113213 0 127 127
0.290349 0.468061 -0.158808 0 127 127
0.275457 -0.373162 0.348095 76 0 153
-0.145177 0.332583 -0.162234 0 127 127
-0.176168 0.874151 0.051720 0 127 127
0.306150 0.847379 -0.007479 0 127 127
-0.292071 -0.186061 0.155808 0 127 127
0.244749 -0.745612 -0.329598 0 127 127
0.191967 0.253558 -0.329997 0 127 127
-0.314430 -0.466075 0.272885 0 127 127
0.035261 0.362087 0.065338 0 127 127
0.063663 0.179610 -0.197028 0 127 127
0.309431 -0.124248 0.254829 0 127 127
0.219385 0.858349 -0.214253 0 127 127
0.235570 -0.918983 0.194407 127 0 127
-0.261566 0.049337 -0.326106 0 127 127
0.123804 0.874151 0.239532 0 127 127
-0.095189 0.858349 0.275725 0 127 127
-0.099512 0.798995 -0.233174 0 127 127
0.242227 0.379125 0.353909 76 0 153
-0.011214 0.222637 0.373654 76 0 153
-0.239773 0.501888 -0.326718 0 127 127
-0.314431 0.283873 0.011044 0 127 127
-0.124569 0.874151 0.274138 0 127 127
-0.089022 -0.169911 -0.329997 0 127 127
0.306150 0.833229 0.023757 0 127 127
-0.314431 -0.856507 -0.014283 0 127 127
0.106394 0.874151 -0.230874 0 127 127
0.162870 0.874151 0.247186 0 127 127
-0.262907 0.329216 0.016151 0 127 127
0.198597 -0.877443 -0.160764 0 127 127
0.079862 0.334579 0.237345 0 127 127
0.309403 0.304209 -0.194745 0 127 127
0.283473 -0.868553 0.346583 76 0 153
-0.047860 0.858349 -0.127602 0 127 127
0.246394 0.601301 0.353268 76 0 153
0.287071 -0.187840 0.013372 0 127 127
0.308843 -0.244193 -0.056537 0 127 127
-0.295550 -0.313830 0.345248 76 0 153
0.184060 -0.658250 -0.197489 0 127 127
0.306150 0.555745 -0.003999 0 127 127
0.170295 0.874151 -0.113833 0 127 127
-0.285444 0.274066 0.347154 76 0 153
-0.292613 0.004610 -0.103561 0 127 127
0.269554 -0.172313 0.349208 76 0 153
-0.123185 -0.032673 -0.197142 0 127 127
-0.292071 -0.658658 0.101176 0 127 127
0.062945 0.858349 0.314164 0 127 127
0.175379 -0.512154 -0.197028 0 127 127
0.280420 0.858349 -0.097899 0 127 127
-0.089078 -0.148083 -0.197027 0 127 127
-0.217884 0.351552 0.126626 0 127 127
-0.155766 -0.150117 0.366065 76 0 153
0.290349 0.381190 0.188997 0 127 127
0.309378 -0.732023 -0.255037 0 127 127
-0.292071 -0.515221 -0.044737 0 127 127
0.288645 0.843630 -0.289848 0 127 127
-0.311150 0.463058 0.082785 0 127 127
-0.292239 0.053924 -0.088302 0 127 127
0.138668 -0.888409 -0.315271 0 127 127
0.283230 -0.707627 -0.165710 0 127 127
-0.303363 0.420221 -0.289848 0 127 127
0.228739 0.415864 0.355982 76 0 153
0.283602 -0.034230 -0.163385 0 127 127
0.170620 0.647475 -0.233174 0 127 127
-0.244426 -0.877787 -0.106710 0 127 127
0.290349 0.601799 0.128278 0 127 127
-0.034641 -0.503621 -0.197309 0 127 127
-0.227258 0.874151 0.270263 0 127 127
-0.076328 -0.321543 -0.197027 0 127 127
0.309431 0.057085 -0.044377 0 127 127
0.089825 0.362087 0.042711 0 127 127
-0.292071 0.018651 0.214872 0 127 127
-0.095690 -0.545729 -0.329997 0 127 127
-0.264278 -0.918982 0.056049 127 0 127
0.148028 0.665191 -0.326718 0 127 127
0.096325 -0.314533 -0.197027 0 127 127
-0.311150 0.375135 0.031389 0 127 127
-0.178800 0.874151 -0.213159 0 127 127
0.270459 0.874151 0.219942 0 127 127
0.234108 -0.878873 0.292602 0 127 127
0.309431 -0.380495 -0.005137 0 127 127
-0.314431 -0.073232 -0.041425 0 127 127
0.306150 0.367357 -0.255286 0 127 127
-0.314369 -0.113021 -0.255768 0 127 127
0.309431 -0.807946 -0.045957 0 127 127
-0.314431 0.138183 0.101281 0 127 127
0.309006 -0.388948 0.062009 0 127 127
0.147245 0.478576 0.366364 76 0 153
0.289938 -0.349878 0.345363 76 0 153
-0.314431 -0.864448 0.121041 0 127 127
0.212606 0.100463 -0.329998 0 127 127
0.144632 0.874045 0.345225 76 0 153
-0.292071 -0.164322 0.173889 0 127 127
-0.284524 0.351552 -0.274197 0 127 127
-0.302746 0.351552 0.217169 0 127 127
-0.109570 0.874151 0.020213 0 127 127
0.092141 0.444210 -0.326718 0 127 127
0.287071 -0.228427 -0.096890 0 127 127
-0.149280 -0.253768 0.366616 76 0 153
-0.215665 0.858349 0.057566 0 127 127
0.159544 0.839220 -0.326718 0 127 127
-0.312239 0.340738 0.084552 0 127 127
0.287078 0.018265 -0.121653 0 127 127
-0.292071 -0.590965 -0.008802 0 127 127
0.058477 -0.347102 -0.197344 0 127 127
0.309369 -0.055469 0.279627 0 127 127
0.309431 -0.791568 0.085281 0 127 127
-0.220083 0.405235 0.358082 76 0 153
0.309431 -0.477443 0.001263 0 127 127
0.204125 0.858349 -0.183059 0 127 127
0.078769 -0.710886 0.371424 76 0 153
-0.295349 0.716881 -0.066515 0 127 127
0.012290 0.302117 0.373551 76 0 153
-0.295349 0.486580 0.273209 0 127 127
-0.314431 0.250127 -0.144460 0 127 127
0.247614 -0.861626 -0.328877 0 127 127
-0.164912 -0.876767 0.365039 76 0 153
-0.292787 -0.440667 0.291860 0 127 127
-0.232168 0.385685 -0.289848 0 127 127
0.020759 -0.690481 -0.197974 0 127 127
0.287071 -0.319216 -0.016627 0 127 127
-0.314431 -0.230557 0.124417 0 127 127
-0.292071 -0.194071 0.267613 0 127 127
0.276287 0.834315 -0.233174 0 127 127
-0.173352 -0.464313 0.364033 76 0 153
-0.293009 -0.377222 0.159071 0 127 127
-0.169971 0.786006 0.364436 76 0 153
-0.267181 0.677444 -0.233174 0 127 127
-0.184919 -0.915703 0.337437 76 0 153
-0.164373 -0.574594 -0.329997 0 127 127
-0.005171 0.761151 -0.326718 0 127 127
0.309431 -0.513542 0.006456 0 127 127
-0.292071 -0.533145 0.026164 0 127 127
-0.314272 0.059187 0.288367 0 127 127
0.297667 0.874151 -0.078629 0 127 127
0.107188 0.351552 -0.221564 0 127 127
-0.269448 0.858349 0.073008 0 127 127
0.307370 -0.228172 -0.282219 0 127 127
-0.292082 -0.310436 -0.056345 0 127 127
0.287071 -0.374373 0.191749 0 127 127
-0.192764 0.645774 -0.233174 0 127 127
0.089485 -0.846169 0.370879 76 0 153
0.168481 0.140547 0.364017 76 0 153
0.052885 0.351552 -0.053512 0 127 127
-0.021161 0.858349 0.199679 0 127 127
-0.295349 0.685221 -0.131899 0 127 127
0.309431 -0.598965 -0.087050 0 127 127
0.306150 0.671027 0.009102 0 127 127
-0.075141 0.351552 0.239840 0 127 127
0.078820 -0.407223 -0.197448 0 127 127
-0.203797 -0.387159 0.360404 76 0 153
0.088366 0.744622 0.370936 76 0 153
-0.292071 -0.673157 -0.087966 0 127 127
-0.311150 0.745395 -0.165756 0 127 127
0.134163 -0.918983 -0.051143 127 0 127
-0.311150 0.404748 0.122008 0 127 127
-0.199534 -0.086503 0.360912 76 0 153
-0.277366 0.318810 -0.081591 0 127 127
-0.207062 0.874151 -0.248042 0 127 127
-0.242965 -0.878821 0.149735 0 127 127
0.111419 0.874151 -0.198412 0 127 127
-0.168446 0.824665 -0.233174 0 127 127
-0.292070 0.016202 -0.019697 0 127 127
0.090584 -0.898747 0.323347 127 0 127
0.308982 -0.895003 -0.202955 0 127 127
0.308383 -0.161712 -0.273683 0 127 127
-0.273148 -0.532734 -0.320871 0 127 127
-0.311150 0.703774 0.285141 0 127 127
-0.046927 -0.487186 0.373049 76 0 153
0.309431 0.133992 0.121181 0 127 127
0.139780 -0.241529 -0.197027 0 127 127
-0.027884 0.386315 -0.308415 0 127 127
0.016107 0.348392 0.337778 76 0 153
-0.156775 -0.462237 -0.329997 0 127 127
-0.288401 -0.845891 -0.027719 0 127 127
-0.091863 -0.480860 -0.197027 0 127 127
0.073856 0.874045 0.352228 76 0 153
-0.292070 -0.042239 0.005328 0 127 127
-0.314431 0.137570 0.189178 0 127 127
0.287071 -0.636349 -0.034128 0 127 127
-0.311150 0.764412 -0.275664 0 127 127
-0.292071 -0.083329 0.155274 0 127 127
-0.292071 -0.155314 0.049295 0 127 127
0.246535 -0.274465 -0.329564 0 127 127
0.308885 -0.306188 0.037619 0 127 127
-0.314431 0.196562 0.030987 0 127 127
0.187346 0.351549 0.282040 0 127 127
0.309364 -0.835465 0.226562 0 127 127
0.308877 -0.705491 0.224080 0 127 127
-0.154195 -0.701392 0.366199 76 0 153
0.285204 -0.461161 -0.153381 0 127 127
-0.294279 0.868913 -0.289848 0 127 127
-0.073632 -0.918983 0.225149 127 0 127
-0.232434 0.529623 0.356183 76 0 153
-0.311150 0.525096 0.336015 76 0 153
-0.250256 0.466241 0.353443 76 0 153
0.145634 0.874151 0.017099 0 127 127
0.022830 0.362087 -0.084829 0 127 127
0.287071 -0.143200 0.234818 0 127 127
-0.311150 0.675986 0.265058 0 127 127
0.306150 0.563700 -0.044238 0 127 127
0.223246 -0.006972 -0.197059 0 127 127
-0.065751 0.499131 0.372341 76 0 153
-0.314431 -0.337120 0.173712 0 127 127
0.294767 0.000362 0.344452 76 0 153
0.287071 -0.766281 -0.013214 0 127 127
-0.311150 0.535421 0.191946 0 127 127
0.287071 -0.298358 0.184600 0 127 127
-0.311150 0.789300 0.232635 0 127 127
0.011908 0.274745 0.373558 76 0 153
0.063093 0.432966 -0.233174 0 127 127
0.163232 -0.549832 0.364643 76 0 153
-0.314277 -0.295939 0.287972 0 127 127
0.287071 -0.468758 0.071290 0 127 127
0.060773 0.007231 0.372340 76 0 153
0.072900 0.131083 -0.197028 0 127 127
0.309431 -0.764189 -0.159312 0 127 127
0.306150 0.647988 -0.217244 0 127 127
0.083264 -0.376689 -0.329997 0 127 127
-0.172119 0.874151 0.016460 0 127 127
0.085567 0.351552 -0.270588 0 127 127
0.290349 0.569795 -0.081798 0 127 127
0.154657 -0.918983 0.261189 127 0 127
0.191400 0.362087 -0.213215 0 127 127
0.022852 0.874151 0.209281 0 127 127
0.287076 0.254216 -0.114631 0 127 127
0.235460 0.575117 0.354949 76 0 153
-0.037008 -0.246558 -0.329997 0 127 127
0.253932 0.086384 -0.327086 0 127 127
-0.311150 0.750363 -0.206086 0 127 127
-0.292071 -0.734086 -0.009526 0 127 127
0.290349 0.757947 -0.018963 0 127 127
0.165845 -0.246176 -0.197027 0 127 127
-0.160208 0.858349 0.215429 0 127 127
0.023006 0.858349 -0.140839 0 127 127
0.287070 -0.250840 0.262645 0 127 127
0.240596 -0.834714 0.354159 76 0 153
0.287493 -0.512274 0.299630 0 127 127
-0.140528 0.351552 -0.122451 0 127 127
-0.314431 -0.344998 0.071927 0 127 127
0.050332 -0.918983 0.117715 127 0 127
0.306150 0.454637 0.134452 0 127 127
-0.075969 -0.915703 0.332805 76 0 153
0.280372 0.021275 -0.312752 0 127 127
-0.292071 -0.564621 0.077340 0 127 127
-0.041595 -0.422972 -0.197226 0 127 127
-0.292087 0.256410 -0.124452 0 127 127
-0.017434 0.351552 -0.084243 0 127 127
0.309431 -0.210320 0.046393 0 127 127
0.248522 -0.123787 -0.329077 0 127 127
0.306150 0.370647 0.298590 0 127 127
0.030927 0.678418 -0.233174 0 127 127
-0.314431 -0.594047 -0.184585 0 127 127
-0.001967 -0.272405 0.373793 76 0 153
-0.314431 0.063995 0.049759 0 127 127
0.223311 -0.789004 0.356817 76 0 153
-0.292467 -0.261155 0.145351 0 127 127
0.309431 0.132573 0.072809 0 127 127
0.233832 0.858349 -0.180769 0 127 127
0.076901 0.351552 0.093617 0 127 127
0.268078 0.574420 -0.233174 0 127 127
0.253563 0.801354 0.352166 76 0 153
-0.216205 0.661111 -0.233174 0 127 127
0.054250 -0.250874 0.372672 76 0 153
-0.240680 0.331388 -0.170628 0 127 127
-0.292070 -0.404673 -0.103925 0 127 127
0.307211 0.340973 0.245263 0 127 127
-0.293069 -0.414852 0.183471 0 127 127
-0.040620 0.468263 -0.326718 0 127 127
-0.258972 0.477771 -0.326718 0 127 127
-0.314431 -0.556582 -0.034171 0 127 127
-0.152339 0.464885 -0.326718 0 127 127
-0.295068 -0.141077 -0.303312 0 127 127
0.309431 -0.084210 0.153346 0 127 127
-0.201825 0.501389 -0.326718 0 127 127
0.046666 -0.632239 -0.198029 0 127 127
-0.164633 0.323955 0.365072 76 0 153
-0.295349 0.491413 0.320856 0 127 127
0.287070 -0.393432 0.272184 0 127 127
0.265314 -0.918981 0.252787 127 0 127
-0.314431 -0.291385 -0.018201 0 127 127
-0.040592 0.489407 -0.233174 0 127 127
0.056950 0.558385 -0.233174 0 127 127
-0.225445 -0.162274 -0.329990 0 127 127
0.287071 -0.697473 0.113196 0 127 127
-0.077079 0.334579 -0.032599 0 127 127
0.309395 -0.873552 0.257448 0 127 127
-0.028389 0.683304 -0.326718 0 127 127
-0.311150 0.651035 0.162899 0 127 127
0.205008 0.874151 -0.237694 0 127 127
-0.295349 0.572527 -0.164374 0 127 127
0.268907 0.372134 0.349330 76 0 153
-0.196271 -0.330596 0.361301 76 0 153
0.289917 0.263996 0.345367 76 0 153
-0.085372 -0.352405 -0.197027 0 127 127
-0.075841 -0.881335 0.123987 0 127 127
0.161818 0.858349 0.226212 0 127 127
0.158267 0.784956 -0.233174 0 127 127
0.225637 -0.738220 0.356459 76 0 153
-0.314431 -0.810783 0.124159 0 127 127
0.178993 -0.918983 -0.074837 127 0 127
0.013137 0.858349 0.123626 0 127 127
0.287071 -0.134283 0.168293 0 127 127
0.109158 0.334579 -0.045499 0 127 127
0.115244 0.505917 -0.233174 0 127 127
-0.314431 -0.045456 0.153335 0 127 127
-0.314431 -0.762922 -0.125651 0 127 127
0.306150 0.450812 -0.106451 0 127 127
0.127398 0.610203 0.368051 76 0 153
-0.260854 -0.873431 0.038284 0 127 127
-0.292149 -0.718798 0.198486 0 127 127
0.309431 -0.496628 0.024538 0 127 127
0.309198 -0.433177 0.063559 0 127 127
0.290349 0.552648 0.111443 0 127 127
0.100047 0.874151 -0.040444 0 127 127
0.120637 -0.543373 -0.329997 0 127 127
-0.314431 -0.741121 0.173436 0 127 127
-0.252613 -0.665769 0.353081 76 0 153
-0.292211 -0.163429 0.013297 0 127 127
-0.314374 -0.517591 -0.255530 0 127 127
0.308428 -0.098015 -0.219751 0 127 127
-0.293070 -0.523291 0.225573 0 127 127
0.309431 -0.840148 -0.069349 0 127 127
-0.104052 0.874151 0.088169 0 127 127
-0.003587 0.044710 0.373784 76 0 153
-0.274721 -0.742008 -0.187679 0 127 127
0.290349 0.596924 0.193104 0 127 127
-0.118090 -0.906929 0.318834 127 0 127
-0.292071 0.128626 0.139569 0 127 127
-0.314405 -0.532902 0.277329 0 127 127
0.309431 0.077581 0.156986 0 127 127
0.285304 -0.915703 -0.187118 127 0 127
-0.105802 0.325297 -0.180653 0 127 127
0.266241 0.694909 -0.233174 0 127 127
-0.314431 -0.012586 -0.114577 0 127 127
-0.295349 0.715827 -0.016789 0 127 127
0.154915 0.369211 0.365634 76 0 153
0.287071 0.101990 0.078124 0 127 127
-0.172256 0.152974 0.364163 76 0 153
-0.314431 -0.756470 0.076960 0 127 127
-0.314431 -0.229773 -0.093365 0 127 127
0.287070 -0.549539 -0.104865 0 127 127
-0.151966 0.858349 -0.218207 0 127 127
0.309431 0.181824 0.105643 0 127 127
0.287071 0.187607 -0.010439 0 127 127
-0.225698 0.858349 -0.128346 0 127 127
0.057213 -0.915703 -0.287117 127 0 127
0.309430 0.200912 0.273541 0 127 127
-0.022977 0.839388 -0.319044 0 127 127
0.078432 -0.566121 0.371441 76 0 153
-0.041395 0.604584 -0.233174 0 127 127
-0.292101 -0.308791 -0.030270 0 127 127
-0.292290 -0.029909 -0.048903 0 127 127
0.292521 -0.275755 0.344876 76 0 153
0.309431 -0.069977 0.079621 0 127 127
-0.148806 0.495995 -0.233174 0 127 127
-0.240173 0.874151 -0.211818 0 127 127
0.159823 -0.881164 0.079898 0 127 127
-0.030706 -0.534364 -0.197356 0 127 127
-0.280549 0.441764 0.371070 153 76 0
-0.130249 -0.918983 0.261492 127 0 127
0.132536 0.873019 -0.289080 0 127 127
0.222055 -0.410026 0.357010 76 0 153
-0.161406 0.564866 -0.233174 0 127 127
0.184382 0.874151 0.115924 0 127 127
-0.292071 0.138519 -0.058179 0 127 127
0.306150 0.570674 0.062666 0 127 127
0.249857 -0.915703 0.348989 76 0 153
-0.314407 0.303930 -0.131299 0 127 127
0.308429 -0.578547 0.240713 0 127 127
-0.314431 0.246532 0.109967 0 127 127
-0.295349 0.520974 0.150307 0 127 127
-0.087322 -0.918983 -0.205831 127 0 127
0.290349 0.700198 0.127006 0 127 127
-0.291254 -0.840975 0.261493 0 127 127
0.308603 -0.551220 0.177366 0 127 127
-0.292953 -0.442142 0.171993 0 127 127
0.210828 0.874151 0.146218 0 127 127
0.309431 -0.484043 -0.084997 0 127 127
0.301027 -0.608117 -0.292926 0 127 127
-0.279601 0.362087 0.172546 0 127 127
0.308597 -0.480170 0.150088 0 127 127
0.308460 -0.614944 0.217065 0 127 127
0.216266 0.678781 -0.233174 0 127 127
0.181554 -0.463948 0.362459 76 0 153
0.309218 -0.245689 0.093488 0 127 127
-0.248999 0.384918 0.374262 153 76 0
-0.314431 -0.642989 -0.076341 0 127 127
-0.104202 0.874151 0.061553 0 127 127
-0.266853 0.607758 -0.233174 0 127 127
-0.252920 0.595405 0.384190 153 76 0
-0.110455 -0.215049 0.369915 76 0 153
-0.151204 0.538964 -0.326718 0 127 127
0.103364 -0.257144 -0.329997 0 127 127
-0.004749 0.578355 0.373764 76 0 153
-0.248244 -0.918983 0.094787 127 0 127
-0.314415 -0.870466 -0.039785 0 127 127
-0.308654 -0.725261 0.342687 76 0 153
-0.261809 -0.918982 -0.178507 127 0 127
-0.128776 -0.572834 -0.197027 0 127 127
0.296472 0.381029 0.344131 76 0 153
-0.102889 0.362087 0.001729 0 127 127
0.004823 -0.013966 -0.329997 0 127 127
0.304656 -0.182628 0.323344 76 0 153
-0.142702 -0.511255 0.367175 76 0 153
-0.094938 0.786636 -0.326718 0 127 127
0.052171 0.841356 0.372777 76 0 153
0.287088 0.234435 -0.132290 0 127 127
0.094836 0.872364 0.370224 76 0 153
0.304444 -0.915703 0.278631 127 0 127
-0.292071 0.026912 0.267443 0 127 127
-0.314165 0.083424 -0.265611 0 127 127
-0.034001 0.874151 0.109462 0 127 127
0.252055 -0.041812 0.352398 76 0 153
0.306150 0.604708 0.148483 0 127 127
0.287071 -0.609795 0.090183 0 127 127
-0.311150 0.466226 -0.158924 0 127 127
0.308429 -0.403855 0.161430 0 127 127
-0.292569 -0.068894 -0.058384 0 127 127
0.290349 0.729284 -0.018705 0 127 127
0.007793 -0.918983 -0.048876 127 0 127
0.290349 0.506416 -0.110431 0 127 127
-0.236749 -0.178171 0.355520 76 0 153
-0.207477 -0.240991 -0.197027 0 127 127
-0.225251 -0.294256 0.357287 76 0 153
-0.314431 -0.230736 -0.161063 0 127 127
-0.019482 0.519403 -0.326718 0 127 127
0.306150 0.697427 0.241226 0 127 127
0.098723 0.351552 0.245243 0 127 127
-0.128676 0.351552 0.253946 0 127 127
0.083318 0.858349 0.175119 0 127 127
0.215248 0.858349 0.082908 0 127 127
0.287071 -0.512887 -0.072353 0 127 127
0.148472 0.362087 0.063241 0 127 127
0.287070 -0.350663 -0.102715 0 127 127
-0.292071 0.075521 0.237173 0 127 127
0.250200 -0.138989 -0.196012 0 127 127
0.287071 -0.736736 0.061317 0 127 127
0.306150 0.696596 -0.254016 0 127 127
0.309431 -0.838039 0.062846 0 127 127
0.290349 0.798915 -0.082462 0 127 127
-0.314257 0.173626 0.289587 0 127 127
0.307189 0.341004 -0.134886 0 127 127
0.113404 0.351552 0.172836 0 127 127
0.303902 0.815927 -0.289701 0 127 127
-0.314415 0.181925 -0.253552 0 127 127
-0.290595 0.282653 0.262920 0 127 127
0.275153 -0.514194 0.348152 76 0 153
-0.292071 -0.068759 0.202997 0 127 127
0.306150 0.686020 0.140535 0 127 127
-0.292905 0.605338 -0.233174 0 127 127
-0.310844 0.353417 -0.086177 0 127 127
-0.198787 -0.936194 0.315310 127 0 127
-0.314431 -0.375498 -0.080065 0 127 127
-0.314345 -0.883273 0.032157 0 127 127
0.053892 -0.918983 0.027489 127 0 127
0.080144 0.874151 0.223830 0 127 127
0.274723 -0.749875 0.348233 76 0 153
0.243704 -0.810147 -0.197823 0 127 127
0.250328 0.343632 0.352663 76 0 153
0.287071 -0.694334 0.152955 0 127 127
-0.292071 -0.166327 0.203913 0 127 127
0.008683 0.616347 -0.233174 0 127 127
0.293330 0.027575 0.317173 0 127 127
0.057019 0.746210 -0.326718 0 127 127
-0.260354 0.330770 0.287918 0 127 127
-0.072265 0.858349 -0.106765 0 127 127
-0.235219 0.337836 0.309063 0 127 127
-0.116830 -0.500803 -0.329997 0 127 127
-0.209922 -0.266443 0.359644 76 0 153
0.037163 0.454405 -0.326718 0 127 127
-0.084975 -0.514667 -0.329997 0 127 127
0.008953 -0.880820 0.245173 0 127 127
-0.118911 0.592164 -0.326718 0 127 127
0.287071 -0.157079 -0.087320 0 127 127
0.133627 -0.918983 0.215171 127 0 127
0.306150 0.499252 0.223196 0 127 127
-0.295349 0.662535 0.137211 0 127 127
-0.175639 0.334579 0.257785 0 127 127
-0.295349 0.676987 -0.196652 0 127 127
-0.114793 0.159253 0.369546 76 0 153
0.097700 -0.626646 0.370461 76 0 153
0.290349 0.849846 0.302616 0 127 127
-0.016108 0.163412 -0.329997 0 127 127
0.290349 0.666826 0.198836 0 127 127
0.208103 0.348392 0.324344 76 0 153
-0.195930 0.548606 -0.233174 0 127 127
-0.261101 -0.066640 -0.326278 0 127 127
0.290349 0.724632 -0.107324 0 127 127
0.098978 -0.493324 -0.197645 0 127 127
-0.189484 0.874151 -0.048281 0 127 127
-0.269397 -0.728902 0.350181 76 0 153
0.240298 0.268463 0.354205 76 0 153
-0.168553 0.362087 -0.056405 0 127 127
0.052608 -0.880520 -0.143443 0 127 127
-0.283761 0.102575 -0.313819 0 127 127
-0.105598 0.874151 -0.112236 0 127 127
0.135798 -0.416341 0.367337 76 0 153
0.237419 0.337959 0.309470 0 127 127
0.112336 0.351552 0.221282 0 127 127
-0.202796 0.874151 -0.003210 0 127 127
-0.314431 -0.318022 -0.096962 0 127 127
0.306150 0.715661 -0.188644 0 127 127
-0.168064 -0.869236 -0.326983 0 127 127
-0.234504 0.334660 0.276330 0 127 127
0.308429 -0.445663 0.240810 0 127 127
0.289496 -0.342025 -0.303774 0 127 127
-0.025603 -0.268054 -0.329997 0 127 127
0.212192 -0.918983 0.095922 127 0 127
0.112897 0.351672 0.121088 0 127 127
-0.026473 0.348392 0.360069 76 0 153
0.287082 -0.449074 -0.126557 0 127 127
-0.301157 -0.917333 0.257104 127 0 127
-0.311150 0.540421 0.041816 0 127 127
-0.314431 0.231194 0.036340 0 127 127
-0.196004 0.334579 -0.022258 0 127 127
-0.025255 0.874151 0.158134 0 127 127
0.287071 0.224232 0.216858 0 127 127
-0.209158 -0.880331 -0.144481 0 127 127
0.290349 0.457124 0.179892 0 127 127
-0.027181 0.351552 -0.110619 0 127 127
0.306150 0.592502 -0.120449 0 127 127
-0.311150 0.852296 0.008832 0 127 127
0.029053 0.858349 -0.167913 0 127 127
-0.291917 -0.250601 -0.147063 0 127 127
-0.280549 0.490826 0.371450 153 76 0
0.064113 -0.918983 -0.040420 127 0 127
-0.314431 -0.216994 0.038531 0 127 127
-0.311150 0.857696 0.162111 0 127 127
0.287071 -0.026385 0.256236 0 127 127
0.011706 -0.918982 -0.247613 127 0 127
-0.302769 0.523904 -0.289848 0 127 127
0.246354 0.334754 0.081889 0 127 127
0.211048 0.858349 -0.128527 0 127 127
0.281912 0.669635 -0.233174 0 127 127
-0.292071 -0.628420 0.156852 0 127 127
0.168628 -0.918983 0.014534 127 0 127
-0.162469 -0.918983 0.174428 127 0 127
0.074325 -0.163462 0.371650 76 0 153
0.044999 0.858349 0.263267 0 127 127
0.282757 -0.299499 -0.168661 0 127 127
-0.292784 -0.551614 0.345769 76 0 153
0.186034 -0.918983 0.234645 127 0 127
-0.079862 0.265116 0.371623 76 0 153
-0.292180 0.015683 -0.064220 0 127 127
0.309431 0.229455 0.080235 0 127 127
0.282415 0.874151 0.012830 0 127 127
-0.292071 0.124743 -0.011241 0 127 127
0.198149 0.351552 -0.090801 0 127 127
-0.292078 0.259430 0.018070 0 127 127
-0.311150 -0.012200 0.326344 76 0 153
-0.292070 -0.104845 -0.002755 0 127 127
-0.311150 0.760854 0.191478 0 127 127
-0.295349 0.627366 0.105788 0 127 127
-0.314431 -0.639268 -0.033754 0 127 127
0.308314 -0.722566 0.303566 0 127 127
-0.002176 0.874151 0.300796 0 127 127
0.231998 0.654960 -0.233174 0 127 127
-0.314431 -0.176906 0.020131 0 127 127
0.292317 0.464184 -0.289848 0 127 127
0.249732 -0.701459 0.352755 76 0 153
-0.292071 -0.732741 -0.043034 0 127 127
-0.045759 -0.915703 0.317742 127 0 127
-0.292941 -0.310822 0.257916 0 127 127
-0.237911 0.351552 0.016408 0 127 127
-0.191911 0.037455 0.361821 76 0 153
0.260193 0.133660 -0.191838 0 127 127
-0.168454 -0.297467 0.364616 76 0 153
0.309258 0.209840 -0.219107 0 127 127
-0.233588 0.874151 -0.183560 0 127 127
-0.249321 0.619552 0.376713 153 76 0
0.309006 -0.784288 0.260403 0 127 127
-0.311150 0.419729 -0.147567 0 127 127
0.125116 0.858349 -0.157770 0 127 127
-0.314431 0.250390 0.149511 0 127 127
-0.084574 0.334579 -0.068699 0 127 127
0.219049 -0.855660 0.357472 76 0 153
-0.293078 -0.212882 -0.122459 0 127 127
-0.292071 -0.497744 -0.061494 0 127 127
0.277393 -0.856790 0.288279 0 127 127
-0.314427 0.132230 -0.251355 0 127 127
0.015846 0.577070 -0.233174 0 127 127
-0.102478 0.334579 0.015086 0 127 127
0.019626 0.731396 -0.233174 0 127 127
-0.172620 -0.204432 -0.329997 0 127 127
-0.314431 -0.183963 -0.094639 0 127 127
-0.209947 -0.090002 -0.329997 0 127 127
0.019994 -0.392672 -0.329997 0 127 127
-0.048792 0.858349 0.254260 0 127 127
-0.266519 0.490743 -0.233174 0 127 127
0.298509 -0.915703 0.070030 127 0 127
0.287070 0.061491 -0.107350 0 127 127
0.308912 -0.754024 0.268678 0 127 127
-0.314431 -0.121579 0.142633 0 127 127
0.197351 0.334579 0.258621 0 127 127
0.302195 -0.342697 0.320523 0 127 127
-0.311150 0.625576 -0.119043 0 127 127
0.290349 0.453790 -0.047005 0 127 127
0.287415 0.257072 -0.306274 0 127 127
0.157724 0.248585 -0.197027 0 127 127
-0.142835 0.703278 0.367164 76 0 153
0.020074 0.332113 -0.166813 0 127 127
-0.292175 -0.599866 0.161909 0 127 127
-0.080747 -0.735375 -0.197027 0 127 127
-0.314237 0.084298 0.291229 0 127 127
-0.292071 -0.605323 -0.040818 0 127 127
0.118874 -0.409852 -0.197117 0 127 127
0.024641 0.723068 -0.326718 0 127 127
-0.032553 -0.554054 0.373293 76 0 153
0.010055 -0.138034 -0.329997 0 127 127
0.286691 -0.725622 -0.306806 0 127 127
-0.311150 0.749846 0.018630 0 127 127
-0.311150 0.371596 0.055270 0 127 127
0.267892 -0.887664 0.349522 76 0 153
0.283350 0.298089 -0.072067 0 127 127
0.309431 -0.620710 0.064787 0 127 127
-0.292071 -0.075473 0.069069 0 127 127
-0.136762 0.362087 0.040154 0 127 127
-0.314303 -0.372104 0.285750 0 127 127
0.207739 0.334579 -0.046879 0 127 127
0.124354 0.509392 0.368309 76 0 153
0.215905 0.843213 0.357956 76 0 153
0.308429 -0.407455 0.201294 0 127 127
-0.312147 -0.734817 -0.286675 0 127 127
0.287219 0.063183 0.283911 0 127 127
0.306150 0.648577 0.027114 0 127 127
-0.314431 -0.567878 0.236334 0 127 127
-0.292071 0.199834 -0.061008 0 127 127
0.054297 0.362087 -0.155890 0 127 127
0.111910 -0.918983 0.133936 127 0 127
-0.030524 0.334579 0.263165 0 127 127
-0.314431 -0.810875 -0.063843 0 127 127
-0.295349 0.475736 0.195182 0 127 127
-0.292071 -0.623569 0.034443 0 127 127
0.309239 -0.761448 -0.261440 0 127 127
-0.314431 -0.585759 0.046369 0 127 127
-0.035682 -0.500386 -0.329997 0 127 127
-0.271279 0.310206 -0.188555 0 127 127
-0.282853 0.372839 0.337001 153 76 0
-0.016009 0.362087 0.165109 0 127 127
-0.262825 0.351552 -0.244360 0 127 127
-0.069020 -0.881301 0.073441 0 127 127
-0.273835 0.349841 0.353419 153 76 0
-0.104672 -0.857729 -0.189738 0 127 127
-0.295349 0.448931 0.316304 0 127 127
0.289839 0.417156 0.345382 76 0 153
-0.135915 -0.417047 0.367752 76 0 153
-0.292073 0.248945 0.057745 0 127 127
-0.002198 0.362087 0.119384 0 127 127
-0.238800 0.717834 -0.233174 0 127 127
-0.106855 0.362087 -0.100938 0 127 127
0.117528 0.362087 0.012628 0 127 127
-0.293094 -0.126446 -0.138661 0 127 127
0.133075 0.858349 0.087276 0 127 127
0.308898 -0.272389 0.251533 0 127 127
0.308496 -0.244684 -0.095253 0 127 127
0.089639 0.312240 -0.321964 0 127 127
0.308459 -0.154101 -0.227768 0 127 127
0.309431 -0.422147 -0.082988 0 127 127
0.309431 -0.004964 -0.045446 0 127 127
0.146711 0.874151 0.067208 0 127 127
-0.292071 0.155485 0.083543 0 127 127
-0.292211 -0.833875 0.134189 0 127 127
0.290349 0.781929 0.129200 0 127 127
-0.091925 -0.832311 -0.329997 0 127 127
0.287071 -0.164361 0.085732 0 127 127
-0.229422 0.106928 -0.197068 0 127 127
0.131077 0.391874 -0.326718 0 127 127
-0.220736 0.778649 -0.233174 0 127 127
-0.148886 -0.880820 -0.051959 0 127 127
-0.061213 0.339059 0.313029 0 127 127
-0.311150 0.621664 0.063950 0 127 127
0.287071 0.112149 0.193195 0 127 127
0.290349 0.556411 -0.154867 0 127 127
-0.253807 0.858349 -0.009626 0 127 127
-0.305883 -0.531016 0.322466 76 0 153
0.287304 -0.810785 0.288759 0 127 127
-0.314431 -0.323553 0.116170 0 127 127
0.274703 -0.860998 0.160209 0 127 127
-0.242078 0.858349 -0.158665 0 127 127
-0.295349 0.381653 -0.037123 0 127 127
-0.115415 -0.469674 0.369493 76 0 153
0.028790 0.874151 -0.098079 0 127 127
0.290349 0.376835 -0.063021 0 127 127
0.125523 -0.084617 -0.197027 0 127 127
-0.192192 -0.114778 0.361787 76 0 153
0.169164 0.516052 -0.233174 0 127 127
-0.232355 -0.067388 -0.329883 0 127 127
-0.313982 -0.185318 -0.274396 0 127 127
-0.025765 0.351672 -0.139836 0 127 127
-0.249512 -0.339561 -0.329616 0 127 127
-0.311150 0.619648 0.146946 0 127 127
-0.314431 -0.105231 0.066201 0 127 127
0.287071 -0.353850 0.046213 0 127 127
0.290349 0.391703 0.320948 0 127 127
0.222456 0.788244 -0.233174 0 127 127
-0.156873 -0.343217 0.365971 76 0 153
-0.295349 0.588026 0.218728 0 127 127
0.291299 -0.915703 0.112502 127 0 127
-0.311150 0.781842 0.296035 0 127 127
-0.089949 -0.918983 0.079165 127 0 127
-0.113933 -0.918983 0.186964 127 0 127
0.287071 -0.625424 0.108333 0 127 127
0.309431 -0.745306 0.020640 0 127 127
0.265357 0.220209 -0.189681 0 127 127
-0.293030 -0.176788 -0.079747 0 127 127
-0.314431 -0.421572 -0.071461 0 127 127
-0.314431 0.049912 0.229668 0 127 127
0.297691 -0.915703 -0.053940 127 0 127
-0.292071 -0.365916 -0.039618 0 127 127
0.298498 -0.312455 0.321760 0 127 127
-0.314431 -0.571326 0.135844 0 127 127
0.054797 0.400023 0.372644 76 0 153
-0.053517 0.874151 0.200617 0 127 127
0.046024 -0.769777 0.372979 76 0 153
0.308488 -0.249240 -0.230237 0 127 127
-0.134645 -0.103382 0.367860 76 0 153
-0.139075 -0.918983 0.037032 127 0 127
-0.118323 -0.344344 0.369246 76 0 153
-0.292071 -0.727893 0.062775 0 127 127
0.289510 -0.376630 0.306766 0 127 127
-0.170846 -0.911771 0.314594 127 0 127
0.306150 0.718134 0.312712 0 127 127
0.190729 -0.347811 0.361366 76 0 153
0.287071 0.221755 0.106290 0 127 127
0.309431 0.236911 0.223077 0 127 127
0.287071 -0.556014 0.205675 0 127 127
0.003906 0.819745 0.373693 76 0 153
0.309431 -0.125949 -0.027203 0 127 127
0.041546 -0.915703 0.351989 76 0 153
0.290349 0.383275 0.231430 0 127 127
0.189365 0.105976 -0.329997 0 127 127
-0.010700 0.874151 -0.169842 0 127 127
0.087203 0.644961 -0.326718 0 127 127
0.188873 0.858349 0.075984 0 127 127
0.013026 0.102696 0.373539 76 0 153
0.022129 0.362087 -0.181027 0 127 127
0.104998 0.040326 -0.329997 0 127 127
-0.294851 0.798279 -0.289848 0 127 127
0.309431 0.255544 0.142334 0 127 127
0.220871 0.351552 0.096689 0 127 127
0.105043 0.691292 -0.326718 0 127 127
0.251708 0.201370 0.352451 76 0 153
0.272840 0.279784 -0.317842 0 127 127
-0.020694 -0.832082 -0.197676 0 127 127
-0.035966 -0.410247 0.373235 76 0 153
0.011933 0.362087 0.213490 0 127 127
-0.147603 0.386315 -0.324695 0 127 127
0.287071 -0.327755 0.007283 0 127 127
-0.289520 0.716593 -0.233174 0 127 127
-0.059748 0.812742 -0.233174 0 127 127
-0.295349 0.398365 0.050697 0 127 127
0.053563 0.874151 0.112720 0 127 127
-0.260307 -0.097486 0.351896 76 0 153
-0.292071 -0.420100 0.033112 0 127 127
0.227070 -0.879709 0.184953 0 127 127
0.055862 0.874151 -0.209941 0 127 127
-0.314431 -0.478950 -0.118041 0 127 127
-0.286043 0.858349 -0.140470 0 127 127
0.116857 0.191588 0.368946 76 0 153
-0.314431 -0.442682 0.260217 0 127 127
0.133936 0.013501 -0.197027 0 127 127
-0.295349 0.454659 0.273707 0 127 127
0.213332 0.728559 -0.233174 0 127 127
-0.302260 -0.687108 0.320435 0 127 127
-0.281355 0.569356 -0.233174 0 127 127
0.033248 -0.289536 -0.329997 0 127 127
0.287071 0.149618 0.101383 0 127 127
-0.100318 -0.918983 0.138425 127 0 127
-0.148821 -0.854584 0.366655 76 0 153
0.290349 0.807264 0.153225 0 127 127
-0.086058 0.858349 0.035251 0 127 127
0.306150 0.429658 -0.169865 0 127 127
-0.295349 0.737787 -0.048501 0 127 127
-0.045662 0.874151 -0.179830 0 127 127
0.133009 0.467725 -0.233174 0 127 127
-0.269124 0.351552 -0.062542 0 127 127
0.287071 -0.559840 -0.047986 0 127 127
-0.292071 -0.708167 -0.049353 0 127 127
0.287075 0.251889 0.107740 0 127 127
-0.147881 -0.605508 0.366735 76 0 153
0.309431 0.231785 -0.046188 0 127 127
0.261146 0.798152 -0.233174 0 127 127
-0.200928 0.348392 0.339328 76 0 153
-0.295349 0.649825 0.032671 0 127 127
0.287071 -0.180691 0.220166 0 127 127
0.309187 -0.248248 0.227642 0 127 127
-0.314431 0.170969 0.075535 0 127 127
-0.314431 0.241491 0.180010 0 127 127
-0.311150 0.633245 -0.226548 0 127 127
-0.035245 -0.742035 0.373247 76 0 153
-0.115857 0.375464 -0.233174 0 127 127
-0.158650 0.362087 0.082451 0 127 127
-0.295349 0.824201 -0.077645 0 127 127
-0.309383 0.351899 -0.261180 0 127 127
-0.028953 0.589533 0.373354 76 0 153
0.287071 0.046585 0.060003 0 127 127
0.006647 0.858349 0.086935 0 127 127
0.290349 0.368687 -0.224204 0 127 127
-0.137775 0.858349 -0.055776 0 127 127
0.286185 0.767573 0.346071 76 0 153
-0.313155 -0.765910 -0.280104 0 127 127
0.077882 -0.880848 -0.141243 0 127 127
0.101957 0.051201 0.370212 76 0 153
-0.314431 -0.235167 -0.067917 0 127 127
0.287073 -0.621105 -0.116495 0 127 127
0.125483 0.874151 0.182888 0 127 127
0.290349 0.813467 0.077932 0 127 127
0.285727 -0.552722 0.346157 76 0 153
-0.292080 -0.458348 -0.124454 0 127 127
0.225720 -0.102114 0.356447 76 0 153
0.309431 -0.772744 0.170025 0 127 127
-0.311150 0.824570 0.235258 0 127 127
0.301861 -0.915703 0.209657 127 0 127
0.249550 0.351552 0.160871 0 127 127
0.309431 -0.624765 -0.027021 0 127 127
0.202218 -0.735232 0.359996 76 0 153
-0.210022 0.362087 0.054377 0 127 127
-0.314431 0.074406 -0.137041 0 127 127
-0.311150 0.416393 0.006701 0 127 127
0.287074 0.250383 -0.033153 0 127 127
-0.220859 -0.135900 0.357963 76 0 153
0.066570 -0.520896 -0.197951 0 127 127
0.306150 0.440277 0.209810 0 127 127
0.287071 0.136097 0.239964 0 127 127
-0.075788 0.858349 -0.069756 0 127 127
-0.109700 0.334579 -0.114805 0 127 127
-0.100453 0.431880 0.370575 76 0 153
0.287071 -0.066383 0.005607 0 127 127
-0.292458 -0.837434 0.288980 0 127 127
0.309431 0.171583 0.197796 0 127 127
-0.295349 0.683583 -0.062797 0 127 127
-0.292071 -0.016731 0.098702 0 127 127
-0.026995 0.362087 0.118669 0 127 127
0.166948 0.320287 0.364200 76 0 153
-0.171454 0.337422 0.307994 0 127 127
0.308979 -0.458592 0.104324 0 127 127
-0.295349 0.802057 -0.182450 0 127 127
-0.276387 0.774731 -0.322434 0 127 127
0.251773 -0.653425 0.352441 76 0 153
0.309043 -0.567627 -0.270551 0 127 127
-0.295349 0.790740 -0.232860 0 127 127
-0.314430 0.250775 0.264198 0 127 127
0.306150 0.618247 -0.230786 0 127 127
-0.295349 0.664126 -0.013014 0 127 127
-0.021168 0.334579 0.039672 0 127 127
0.009888 0.072725 0.373592 76 0 153
0.287071 -0.272802 0.169235 0 127 127
0.309431 0.221979 0.012818 0 127 127
-0.258302 0.323568 0.344226 153 0 76
0.184657 0.874151 -0.043281 0 127 127
0.240706 -0.866969 -0.178453 0 127 127
-0.164635 -0.529506 0.365072 76 0 153
0.309022 -0.267411 0.275600 0 127 127
-0.011307 0.858349 -0.081937 0 127 127
-0.177767 0.768682 -0.326718 0 127 127
