ply
format ascii 1.0
element vertex 1247
property float x
property float y
property float z
property uchar red
property uchar green
property uchar blue
end_header
0.290349 0.376134 0.133849 0 127 127
-0.188664 0.715320 -0.233174 0 127 127
0.290349 -0.255251 0.114492 0 127 127
-0.295349 -0.256516 -0.022726 0 127 127
-0.311150 -0.214426 0.026011 0 127 127
-0.081425 -0.915703 0.150917 127 0 127
-0.087631 0.337858 0.187610 0 127 127
-0.028252 0.498988 0.373366 76 0 153
-0.075191 -0.915703 -0.190411 127 0 127
-0.005439 -0.839764 -0.200308 0 127 127
-0.082659 0.874151 -0.111003 0 127 127
0.306150 0.281233 0.151107 0 127 127
0.306150 -0.388258 0.194319 0 127 127
0.222274 0.386315 -0.316869 0 127 127
0.121821 0.733460 -0.326718 0 127 127
0.290349 0.506952 0.045446 0 127 127
-0.280549 0.127105 0.372722 153 0 76
-0.311150 -0.154502 -0.193649 0 127 127
0.084369 0.202549 0.371139 76 0 153
-0.294989 0.126358 0.345354 76 0 153
-0.184516 -0.334977 0.362702 76 0 153
-0.149313 -0.884101 0.211271 0 127 127
0.196570 0.874151 0.055191 0 127 127
0.181033 0.362087 -0.082777 0 127 127
0.290349 -0.058823 0.285437 0 127 127
0.109710 -0.749910 0.369553 76 0 153
-0.102616 -0.599554 -0.326718 0 127 127
0.290349 -0.167970 -0.126896 0 127 127
0.290349 0.362326 -0.163938 0 127 127
-0.311150 0.250613 0.279024 0 127 127
-0.049599 0.829205 -0.233174 0 127 127
0.239360 -0.915703 0.095185 127 0 127
-0.295349 -0.075425 0.012601 0 127 127
-0.000537 0.373742 -0.233174 0 127 127
-0.211511 0.274303 -0.200308 0 127 127
-0.212378 0.858349 0.116533 0 127 127
-0.295349 -0.251353 0.247388 0 127 127
0.088606 -0.107439 0.370923 76 0 153
0.081108 -0.012911 -0.200308 0 127 127
0.306150 -0.565023 0.166606 0 127 127
-0.280271 0.353938 0.375985 153 0 76
0.306150 -0.480754 -0.098234 0 127 127
-0.295349 0.414113 -0.070739 0 127 127
-0.155388 0.874151 0.027567 0 127 127
0.290349 0.711398 -0.098842 0 127 127
0.306150 0.691091 0.265931 0 127 127
0.175591 0.858349 0.095257 0 127 127
0.245195 -0.237123 -0.326718 0 127 127
0.203737 -0.915703 -0.277534 127 0 127
-0.295349 -0.481617 0.216390 0 127 127
0.238705 -0.401425 0.354450 76 0 153
0.142762 -0.736574 -0.200308 0 127 127
0.007302 0.858349 0.265292 0 127 127
0.306150 -0.395238 -0.080930 0 127 127
0.162556 0.874151 -0.063775 0 127 127
-0.311150 -0.696067 0.210286 0 127 127
-0.295349 0.240416 0.216285 0 127 127
0.290349 0.245707 0.029165 0 127 127
-0.141292 0.874151 0.282005 0 127 127
0.246135 -0.685483 -0.326718 0 127 127
0.282612 0.858349 0.003184 0 127 127
-0.265530 -0.486540 0.350911 76 0 153
0.020101 0.362087 0.211094 0 127 127
0.157507 0.362087 0.062038 0 127 127
0.106660 0.650716 -0.233174 0 127 127
-0.037396 0.359492 0.373211 76 0 153
0.193203 0.641564 -0.233174 0 127 127
0.225437 0.742382 -0.233174 0 127 127
-0.295349 -0.401215 -0.124911 0 127 127
0.052127 -0.032917 0.372780 76 0 153
-0.311150 -0.689493 -0.129592 0 127 127
0.290349 0.479768 0.217892 0 127 127
-0.311150 0.277149 -0.199328 0 127 127
-0.311150 -0.276533 -0.227402 0 127 127
0.197115 -0.003159 0.360604 76 0 153
-0.295349 -0.136298 0.273236 0 127 127
0.138706 0.473527 0.367090 76 0 153
0.290349 0.678892 0.099046 0 127 127
0.273958 -0.136690 0.348378 76 0 153
0.306043 0.871805 -0.119617 0 127 127
-0.311150 -0.757307 0.125101 0 127 127
-0.295349 -0.748124 0.198407 0 127 127
0.306150 -0.697662 -0.077012 0 127 127
0.306150 -0.425653 0.128036 0 127 127
0.306114 -0.078757 0.318243 0 127 127
-0.210779 0.874151 -0.173892 0 127 127
-0.311150 -0.217980 -0.092206 0 127 127
0.306150 0.631021 0.045510 0 127 127
-0.127543 -0.884101 0.104391 0 127 127
-0.061182 0.351552 -0.263188 0 127 127
-0.211457 -0.405271 -0.200308 0 127 127
0.306150 0.495242 -0.063643 0 127 127
-0.176837 0.839388 -0.295967 0 127 127
0.075123 0.362087 0.053576 0 127 127
0.290349 0.673431 0.177207 0 127 127
0.306150 0.810560 0.234979 0 127 127
-0.247508 0.400554 -0.233174 0 127 127
0.093978 -0.214073 -0.200308 0 127 127
0.284875 0.226477 -0.289848 0 127 127
-0.204324 -0.884101 -0.099229 0 127 127
0.306150 -0.698960 0.191094 0 127 127
-0.295349 -0.169491 -0.010924 0 127 127
-0.311150 0.392009 0.046131 0 127 127
0.197892 -0.816244 -0.200308 0 127 127
-0.181690 0.608167 -0.326718 0 127 127
0.306150 -0.316334 -0.210961 0 127 127
-0.258218 -0.666432 -0.326718 0 127 127
-0.311150 0.857994 0.170583 0 127 127
-0.311150 -0.121249 -0.051902 0 127 127
-0.311150 -0.841926 0.017167 0 127 127
-0.311150 0.136430 0.270730 0 127 127
-0.135486 0.337858 0.226514 0 127 127
0.243538 0.362087 -0.152369 0 127 127
0.083680 0.858349 -0.099590 0 127 127
-0.295349 0.555295 -0.076532 0 127 127
-0.276387 0.497205 -0.299782 0 127 127
0.238145 -0.161127 -0.200308 0 127 127
-0.098065 0.573878 -0.233174 0 127 127
0.306150 0.439400 -0.057756 0 127 127
-0.296586 0.669202 0.321131 76 0 153
0.306150 0.510295 -0.249762 0 127 127
-0.101068 0.337858 0.069108 0 127 127
-0.012924 0.362087 -0.113717 0 127 127
-0.119957 -0.915703 0.216372 127 0 127
0.259981 -0.213928 -0.326718 0 127 127
-0.309688 -0.915703 -0.233962 0 127 127
-0.311150 0.154902 0.079588 0 127 127
-0.286405 -0.884101 0.166202 0 127 127
0.081017 -0.378562 0.371310 76 0 153
0.172961 0.282877 0.363483 76 0 153
-0.311150 0.235040 0.167918 0 127 127
-0.295349 0.472605 -0.175118 0 127 127
-0.311150 -0.616259 0.019489 0 127 127
-0.295349 -0.131558 0.034551 0 127 127
-0.311150 -0.433501 -0.260560 0 127 127
0.204200 0.081337 0.359755 76 0 153
0.166102 -0.881035 -0.289848 0 127 127
-0.181141 0.858349 -0.130246 0 127 127
0.069417 0.858349 0.204241 0 127 127
-0.295349 0.816338 -0.144398 0 127 127
-0.113146 -0.719851 0.369686 76 0 153
-0.290608 -0.248418 -0.289848 0 127 127
0.176993 -0.310626 -0.326718 0 127 127
-0.311150 0.357236 -0.101031 0 127 127
0.246447 -0.453532 -0.200308 0 127 127
0.162529 0.829397 -0.326718 0 127 127
-0.279492 -0.884101 -0.103338 0 127 127
0.212840 -0.839314 0.358426 76 0 153
-0.262762 -0.531399 -0.326718 0 127 127
-0.295349 0.434762 -0.104096 0 127 127
0.306150 0.096047 -0.053579 0 127 127
0.071368 0.858349 0.165568 0 127 127
-0.244482 -0.182074 0.354331 76 0 153
0.016617 0.362087 -0.032667 0 127 127
0.265139 0.858349 0.182920 0 127 127
-0.241373 0.687639 -0.326718 0 127 127
0.306150 0.413133 0.218780 0 127 127
-0.311150 0.710969 0.086653 0 127 127
-0.295349 0.711140 0.040791 0 127 127
-0.308941 0.749685 -0.289685 0 127 127
-0.311150 0.391013 -0.267246 0 127 127
0.271387 -0.590924 -0.319486 0 127 127
0.290349 -0.733586 0.075237 0 127 127
-0.206959 -0.651553 -0.200308 0 127 127
0.290349 0.055812 0.202133 0 127 127
-0.311150 0.795881 -0.144987 0 127 127
0.053386 -0.857093 -0.326718 0 127 127
0.108696 0.251738 -0.200308 0 127 127
0.279444 0.500122 -0.233174 0 127 127
-0.110234 0.649700 0.369933 76 0 153
0.186035 -0.487473 -0.326718 0 127 127
0.195277 0.858349 -0.157241 0 127 127
-0.089896 -0.579795 -0.200308 0 127 127
0.290349 0.543271 0.006266 0 127 127
0.306150 -0.018237 -0.054869 0 127 127
-0.311150 0.746460 0.047813 0 127 127
-0.311150 0.052370 -0.283358 0 127 127
0.102374 0.784872 -0.326718 0 127 127
0.194691 0.337858 -0.072126 0 127 127
-0.295349 0.247978 -0.024739 0 127 127
-0.311150 0.434967 0.015937 0 127 127
0.305885 -0.915703 0.058384 127 0 127
-0.311150 0.585477 0.021545 0 127 127
-0.044362 -0.735215 -0.326718 0 127 127
0.245588 -0.059068 -0.200308 0 127 127
-0.094623 -0.915703 0.022275 127 0 127
-0.165160 -0.915703 -0.046742 127 0 127
-0.141871 0.874151 -0.149823 0 127 127
0.241123 0.874151 0.260195 0 127 127
-0.295349 0.173291 0.245866 0 127 127
-0.295349 0.025020 -0.031343 0 127 127
-0.072607 0.362087 -0.230848 0 127 127
0.290349 0.758222 -0.206637 0 127 127
0.048732 0.735161 -0.326718 0 127 127
0.025776 0.362087 0.268254 0 127 127
-0.082410 0.337858 -0.070777 0 127 127
0.306150 0.087751 0.205956 0 127 127
-0.185030 -0.838918 0.362641 76 0 153
0.306150 0.240987 0.291881 0 127 127
0.271387 -0.634123 -0.314809 0 127 127
-0.311150 0.607485 0.260591 0 127 127
0.256040 0.803145 -0.233174 0 127 127
-0.295349 -0.291474 -0.008748 0 127 127
-0.311150 0.594037 -0.226006 0 127 127
0.290349 0.199861 0.175347 0 127 127
-0.239691 0.873127 0.321131 76 0 153
0.049868 0.337858 -0.129302 0 127 127
-0.311150 0.231753 0.022449 0 127 127
0.306150 -0.744493 0.252531 0 127 127
0.088068 0.816090 -0.233174 0 127 127
0.149005 -0.069526 -0.326718 0 127 127
0.133306 0.337858 0.298778 0 127 127
-0.018362 0.362087 0.144866 0 127 127
0.040693 0.284126 0.373070 76 0 153
-0.035601 0.337858 0.117048 0 127 127
-0.001331 0.337858 0.063255 0 127 127
-0.311150 0.852646 0.324464 76 0 153
-0.295349 0.062028 0.158234 0 127 127
0.286628 0.220965 -0.200308 0 127 127
-0.023389 0.328198 0.373448 76 0 153
0.290349 -0.775574 -0.079198 0 127 127
0.290349 0.499718 0.284917 0 127 127
-0.298533 -0.172778 -0.289848 0 127 127
0.208525 -0.884101 0.165130 0 127 127
0.036071 -0.884101 -0.113709 0 127 127
0.234462 0.858349 0.158564 0 127 127
-0.067764 0.874151 0.182551 0 127 127
-0.066699 0.842304 -0.289848 0 127 127
-0.281797 0.337858 -0.150207 0 127 127
0.220201 0.362087 0.182778 0 127 127
-0.295349 0.494567 0.064765 0 127 127
0.306150 -0.346651 0.086413 0 127 127
0.119985 -0.915703 0.095857 127 0 127
-0.099843 0.858349 0.197402 0 127 127
-0.311150 -0.881433 -0.075849 0 127 127
-0.295349 0.113583 0.203487 0 127 127
0.290349 0.319235 0.004535 0 127 127
-0.020927 -0.422472 -0.200308 0 127 127
0.033672 -0.387428 0.373189 76 0 153
0.202841 0.874151 0.110424 0 127 127
-0.163142 -0.001337 -0.200308 0 127 127
-0.277827 0.874151 0.291953 0 127 127
-0.144271 0.874151 -0.106990 0 127 127
-0.168857 -0.855068 -0.326718 0 127 127
0.290349 0.404734 -0.088902 0 127 127
-0.295349 0.415083 0.018229 0 127 127
0.123828 -0.777293 0.368354 76 0 153
-0.243415 -0.435001 -0.326718 0 127 127
-0.110789 0.414848 0.369886 76 0 153
0.306150 0.562962 0.150692 0 127 127
0.105951 0.337858 -0.139497 0 127 127
0.195399 0.858349 0.244397 0 127 127
-0.092813 -0.405265 -0.200308 0 127 127
-0.086724 -0.884101 -0.111623 0 127 127
0.005624 -0.915703 -0.232977 127 0 127
-0.276387 -0.106459 -0.299386 0 127 127
-0.295349 -0.012518 0.303119 0 127 127
0.283657 0.337858 0.244759 0 127 127
0.306150 -0.721219 0.154369 0 127 127
0.111447 -0.656519 -0.200308 0 127 127
-0.037705 0.788605 0.373205 76 0 153
-0.276387 0.169582 -0.313096 0 127 127
0.006511 0.293430 -0.326718 0 127 127
0.032117 -0.496736 -0.200308 0 127 127
0.306150 0.694707 0.184184 0 127 127
-0.284434 -0.884101 0.235646 0 127 127
0.290349 -0.154989 0.040012 0 127 127
-0.022738 0.337858 -0.043866 0 127 127
-0.143132 0.834653 -0.326718 0 127 127
0.281678 0.858349 -0.162356 0 127 127
0.009850 0.337858 -0.192865 0 127 127
0.290349 0.056826 -0.042478 0 127 127
0.014540 0.453836 0.373513 76 0 153
-0.141574 -0.137336 -0.200308 0 127 127
-0.156490 -0.598082 -0.326718 0 127 127
0.306150 -0.583722 -0.145908 0 127 127
-0.088943 -0.233245 -0.200308 0 127 127
-0.297834 -0.073439 -0.289848 0 127 127
-0.252541 0.362087 0.243264 0 127 127
-0.311150 0.657436 0.034934 0 127 127
0.068110 -0.599691 0.371966 76 0 153
-0.295349 -0.425957 -0.155855 0 127 127
-0.047338 0.548436 -0.233174 0 127 127
0.290349 0.068508 0.069402 0 127 127
-0.295349 -0.469320 0.103591 0 127 127
-0.088191 0.362087 0.289558 0 127 127
0.070359 0.596697 -0.326718 0 127 127
0.290349 -0.248105 -0.173233 0 127 127
0.306150 -0.755433 -0.204776 0 127 127
0.290349 -0.558906 0.317086 0 127 127
0.147809 0.362087 -0.168989 0 127 127
-0.311150 -0.591166 0.224721 0 127 127
-0.164743 0.337858 0.206221 0 127 127
0.121876 0.286759 -0.326718 0 127 127
-0.311150 0.573194 0.053944 0 127 127
-0.053518 -0.046882 -0.200308 0 127 127
-0.295349 0.644902 0.209353 0 127 127
-0.060388 0.362087 0.016910 0 127 127
0.010071 0.624315 -0.233174 0 127 127
-0.295349 -0.822566 0.184574 0 127 127
-0.311150 -0.658948 0.188042 0 127 127
-0.274039 -0.653779 -0.200308 0 127 127
0.306150 -0.367772 0.324396 76 0 153
-0.188090 -0.113261 -0.326718 0 127 127
-0.311150 -0.499794 0.055181 0 127 127
-0.248531 0.435071 0.353708 76 0 153
0.132401 0.351552 -0.210422 0 127 127
-0.056086 0.669046 -0.326718 0 127 127
0.290349 -0.339983 0.225156 0 127 127
0.290349 0.562220 0.316030 0 127 127
0.013780 0.362087 0.148079 0 127 127
0.306150 -0.312007 0.022091 0 127 127
-0.311150 -0.795057 -0.169020 0 127 127
0.241345 0.034494 -0.326718 0 127 127
-0.047748 0.858349 0.103633 0 127 127
-0.214748 -0.370954 0.358902 76 0 153
-0.295349 0.068380 -0.038555 0 127 127
-0.311150 0.437242 0.265180 0 127 127
0.242727 0.839388 -0.300689 0 127 127
0.114543 -0.890687 0.369143 76 0 153
0.063525 0.874045 0.363058 76 0 153
0.290349 0.559877 0.086044 0 127 127
0.306150 0.198603 -0.100191 0 127 127
0.243095 0.337858 0.010120 0 127 127
0.306150 0.309736 -0.162786 0 127 127
0.030106 0.874151 -0.213458 0 127 127
-0.270639 0.235459 0.369657 153 0 76
-0.000736 -0.858001 -0.326718 0 127 127
-0.223635 0.858349 -0.008233 0 127 127
-0.295349 -0.523274 -0.120822 0 127 127
-0.295349 0.376647 -0.223947 0 127 127
-0.113257 -0.915703 -0.056543 127 0 127
-0.220503 0.338231 0.321131 0 127 127
0.306150 -0.388813 -0.165003 0 127 127
0.134801 -0.202695 0.367422 76 0 153
0.306150 -0.291212 -0.154999 0 127 127
-0.311150 -0.190708 0.244917 0 127 127
-0.273114 0.874151 -0.104226 0 127 127
-0.311150 0.739370 -0.211324 0 127 127
-0.102649 0.337858 0.301872 0 127 127
0.210710 -0.662638 -0.326718 0 127 127
-0.122403 0.075431 0.368900 76 0 153
-0.295349 -0.350442 -0.104976 0 127 127
0.290349 -0.767441 0.021652 0 127 127
0.290349 -0.080192 -0.140842 0 127 127
-0.111238 -0.181303 -0.200308 0 127 127
0.061263 -0.884101 -0.197855 0 127 127
-0.295349 0.168367 -0.134216 0 127 127
0.300272 0.553270 -0.289848 0 127 127
-0.295349 -0.074514 -0.163490 0 127 127
0.306150 0.276021 -0.010294 0 127 127
-0.311150 -0.045119 -0.021044 0 127 127
0.018380 0.360000 -0.289848 0 127 127
-0.136876 -0.109184 -0.326718 0 127 127
-0.311150 0.033752 0.003319 0 127 127
0.225245 0.858349 0.271169 0 127 127
-0.295349 -0.276912 -0.136472 0 127 127
-0.295349 -0.183902 0.302385 0 127 127
-0.033284 -0.613910 -0.200308 0 127 127
0.212395 0.337858 0.165918 0 127 127
-0.280325 0.028693 0.375574 153 0 76
0.050211 -0.106560 -0.200308 0 127 127
0.306150 0.282731 -0.203878 0 127 127
0.000053 -0.866908 -0.200308 0 127 127
-0.231194 0.770946 0.356373 76 0 153
0.164244 -0.589268 -0.326718 0 127 127
-0.277839 -0.656748 -0.289848 0 127 127
0.284527 -0.940222 -0.158499 127 0 127
0.100036 -0.940615 -0.268226 127 0 127
0.296548 -0.889244 0.344116 76 0 153
-0.311150 -0.304860 0.093672 0 127 127
0.038810 0.874151 0.206176 0 127 127
0.306150 -0.450661 0.329421 0 127 127
0.061769 -0.811488 -0.200308 0 127 127
-0.295349 -0.319028 -0.137312 0 127 127
0.276729 0.874151 -0.041702 0 127 127
0.103492 -0.846442 0.370081 76 0 153
-0.311150 0.425250 -0.121222 0 127 127
0.110195 -0.908432 -0.289848 0 127 127
0.306150 -0.900852 0.008135 0 127 127
-0.307192 -0.843731 -0.289848 0 127 127
0.263679 0.316929 -0.289848 0 127 127
-0.311150 0.262451 0.324155 76 0 153
-0.295349 -0.594117 0.312702 0 127 127
0.091119 0.874151 -0.064235 0 127 127
0.249641 -0.099177 0.352769 76 0 153
0.164993 0.351552 -0.287807 0 127 127
-0.253373 0.858349 0.011380 0 127 127
0.306150 -0.711559 0.235028 0 127 127
0.306150 -0.078263 0.005392 0 127 127
-0.172696 0.362087 -0.107953 0 127 127
-0.104148 0.686359 -0.326718 0 127 127
-0.295349 0.242478 -0.173388 0 127 127
0.040063 -0.316840 -0.200308 0 127 127
0.284527 -0.934434 0.018129 127 0 127
0.070840 -0.915703 0.239045 127 0 127
-0.311150 0.774042 -0.234331 0 127 127
-0.124110 -0.375793 -0.200308 0 127 127
-0.038322 -0.884101 0.050867 0 127 127
0.306150 -0.726971 -0.019138 0 127 127
-0.296279 0.453901 -0.289848 0 127 127
-0.311150 0.675965 -0.107965 0 127 127
-0.015528 0.337858 0.040227 0 127 127
0.290349 -0.547402 0.094294 0 127 127
-0.250076 -0.233565 0.353471 76 0 153
0.087138 0.351552 0.287335 0 127 127
-0.295349 -0.094201 -0.137452 0 127 127
-0.295349 0.790175 -0.101750 0 127 127
0.243769 -0.884101 -0.028616 0 127 127
0.290349 -0.308590 -0.055279 0 127 127
-0.204798 0.803978 -0.233174 0 127 127
0.026271 -0.884101 -0.163413 0 127 127
0.034173 0.362087 0.108160 0 127 127
0.081726 0.494098 -0.233174 0 127 127
-0.013462 -0.251815 -0.200308 0 127 127
0.290349 -0.757723 0.134960 0 127 127
-0.311150 -0.034072 0.244701 0 127 127
-0.285211 0.362087 0.202225 0 127 127
-0.154088 0.362087 0.044525 0 127 127
-0.087421 -0.060435 -0.326718 0 127 127
-0.141825 0.337858 0.260769 0 127 127
0.125034 -0.300942 0.368251 76 0 153
0.288907 0.857396 -0.233174 0 127 127
0.285655 0.348392 0.216155 0 127 127
-0.274413 -0.884101 -0.132754 0 127 127
-0.311150 -0.368161 0.254324 0 127 127
-0.144949 0.337858 0.177818 0 127 127
0.070147 0.739029 0.371863 76 0 153
0.044030 -0.915703 0.369256 76 0 153
0.240058 -0.884101 -0.151730 0 127 127
-0.311150 -0.383491 -0.264022 0 127 127
0.306150 0.716938 -0.017786 0 127 127
-0.042356 0.740024 0.373127 76 0 153
-0.235784 -0.701895 -0.200308 0 127 127
-0.300056 -0.115395 0.344398 76 0 153
0.282636 0.362087 0.039781 0 127 127
-0.171984 0.099625 0.364196 76 0 153
0.290349 -0.716499 -0.084258 0 127 127
-0.295349 0.670530 0.288784 0 127 127
0.290349 0.052734 -0.005004 0 127 127
-0.311150 0.804533 0.119686 0 127 127
0.306150 -0.750579 -0.169596 0 127 127
-0.053162 0.254492 0.372943 76 0 153
-0.311150 -0.573971 0.122936 0 127 127
0.290349 0.679957 0.149577 0 127 127
-0.026928 -0.490189 -0.326718 0 127 127
-0.295349 -0.613167 0.239314 0 127 127
0.290349 0.842306 -0.048713 0 127 127
0.252606 0.362087 0.222940 0 127 127
-0.311150 -0.702392 0.061761 0 127 127
0.295835 -0.330429 -0.289848 0 127 127
0.290349 0.850330 0.036054 0 127 127
-0.311150 -0.063935 0.196362 0 127 127
-0.214974 0.362087 -0.065801 0 127 127
-0.259333 -0.418945 -0.200308 0 127 127
-0.311150 0.144373 0.004978 0 127 127
-0.056161 0.479732 -0.233174 0 127 127
-0.311150 0.207724 0.295199 0 127 127
0.290349 -0.047669 0.005977 0 127 127
-0.164618 0.362087 0.152569 0 127 127
-0.021837 -0.060472 0.373474 76 0 153
0.299364 -0.876725 -0.289848 0 127 127
0.253986 0.837296 -0.326718 0 127 127
0.271387 0.406809 -0.305123 0 127 127
-0.300455 0.298550 -0.289848 0 127 127
0.306150 -0.104204 0.157213 0 127 127
-0.110720 0.362087 0.024931 0 127 127
0.158609 0.362087 -0.124562 0 127 127
-0.088192 0.362087 0.096633 0 127 127
0.290349 -0.550197 0.012675 0 127 127
0.009547 0.339563 0.321131 76 0 153
-0.013922 -0.534352 0.373609 76 0 153
-0.311150 -0.715192 -0.160457 0 127 127
-0.173070 -0.200516 -0.326718 0 127 127
-0.209454 -0.915703 -0.170126 127 0 127
0.290349 -0.612629 -0.085576 0 127 127
0.289834 0.337858 0.294943 0 127 127
-0.036201 0.351552 -0.178242 0 127 127
0.306150 -0.006654 0.179248 0 127 127
0.306150 0.761158 0.332818 76 0 153
0.249417 0.750114 -0.326718 0 127 127
0.021317 0.128825 -0.200308 0 127 127
-0.246012 -0.093411 0.337001 153 0 76
0.290349 0.245772 0.126291 0 127 127
-0.074604 0.337858 0.261315 0 127 127
0.065143 -0.884101 -0.126206 0 127 127
-0.311150 0.025650 -0.170315 0 127 127
0.020883 -0.884101 0.300879 0 127 127
0.044148 0.031556 -0.200308 0 127 127
-0.202387 -0.705985 0.360572 76 0 153
-0.046888 -0.515524 -0.326718 0 127 127
0.186761 -0.870819 0.361838 76 0 153
-0.202556 -0.689989 -0.326718 0 127 127
0.306150 -0.021626 0.228803 0 127 127
0.306150 -0.359704 -0.005238 0 127 127
0.290349 -0.370259 0.284771 0 127 127
0.000476 -0.915703 -0.186130 127 0 127
0.306150 -0.061357 -0.043841 0 127 127
0.069778 0.704835 -0.326718 0 127 127
0.306150 0.464455 -0.117788 0 127 127
0.167707 -0.677214 -0.200308 0 127 127
-0.295349 -0.338033 0.036816 0 127 127
0.306150 0.867323 0.336509 76 0 153
-0.095217 0.348392 -0.189883 0 127 127
-0.311150 -0.757902 0.246671 0 127 127
0.306150 0.730558 -0.095197 0 127 127
-0.220721 0.028867 0.357984 76 0 153
-0.164140 -0.602878 -0.200308 0 127 127
0.196401 0.874151 0.175947 0 127 127
0.155633 0.337858 -0.092700 0 127 127
0.032830 0.874151 0.109276 0 127 127
0.290349 0.424552 0.181937 0 127 127
-0.184549 -0.429029 -0.326718 0 127 127
0.083274 0.351552 -0.210157 0 127 127
0.145140 -0.498518 0.366543 76 0 153
-0.005559 0.187410 -0.326718 0 127 127
-0.059965 -0.193391 -0.200308 0 127 127
0.306150 -0.096002 0.088540 0 127 127
-0.124458 0.858349 -0.218099 0 127 127
-0.103267 -0.042878 -0.200308 0 127 127
-0.311150 0.093666 0.039666 0 127 127
-0.311150 0.303961 -0.184127 0 127 127
0.093762 0.235203 0.370661 76 0 153
-0.110930 0.362087 -0.058948 0 127 127
-0.090609 0.120036 -0.200308 0 127 127
-0.010294 0.348392 -0.213072 0 127 127
0.069267 0.049012 0.371907 76 0 153
-0.250760 0.362087 0.318688 0 127 127
-0.061396 0.313630 -0.309131 0 127 127
-0.311150 0.536472 0.010330 0 127 127
0.110836 0.198177 -0.200308 0 127 127
-0.311150 -0.552881 0.152763 0 127 127
0.306150 0.826370 0.197238 0 127 127
0.290349 -0.223349 -0.168062 0 127 127
0.028898 -0.805281 -0.326718 0 127 127
0.290349 -0.191300 -0.054073 0 127 127
-0.311150 0.554404 0.167978 0 127 127
0.289326 0.275347 -0.289848 0 127 127
-0.157873 0.453867 0.365878 76 0 153
-0.289527 -0.925292 0.066447 127 0 127
-0.311150 0.006674 -0.022645 0 127 127
-0.288083 0.051607 -0.200308 0 127 127
0.292649 -0.915703 0.270569 127 0 127
-0.295349 0.503971 -0.231659 0 127 127
-0.311150 -0.860219 0.151674 0 127 127
-0.295349 -0.018634 0.111948 0 127 127
0.290349 -0.138494 0.189865 0 127 127
-0.033888 0.337858 -0.082995 0 127 127
-0.295349 0.605198 0.232648 0 127 127
-0.295349 -0.731866 -0.020648 0 127 127
-0.059632 -0.135087 0.372652 76 0 153
-0.311150 0.671018 -0.066688 0 127 127
0.176893 0.417158 -0.326718 0 127 127
-0.295349 0.090554 0.133356 0 127 127
0.049987 0.169518 -0.200308 0 127 127
-0.013655 -0.452099 0.373613 76 0 153
-0.311150 0.832996 -0.096849 0 127 127
0.059036 -0.028740 -0.326718 0 127 127
-0.156190 -0.519003 -0.200308 0 127 127
-0.280549 0.571065 0.373003 153 76 0
0.280682 -0.298912 -0.200308 0 127 127
-0.311150 -0.731530 0.023302 0 127 127
0.290349 -0.169821 0.212120 0 127 127
0.306150 0.315239 0.034346 0 127 127
-0.017095 -0.788990 -0.326718 0 127 127
0.290349 0.395469 0.212184 0 127 127
0.151514 -0.799332 0.366002 76 0 153
-0.299292 0.081524 0.344542 76 0 153
-0.295349 0.759522 0.088961 0 127 127
-0.311150 -0.661309 0.075386 0 127 127
0.290349 0.304368 0.136187 0 127 127
0.290349 -0.225077 -0.036564 0 127 127
0.290349 0.719784 0.243152 0 127 127
0.290349 -0.395333 0.310471 0 127 127
0.253400 0.337858 -0.115355 0 127 127
-0.311150 0.850335 -0.227952 0 127 127
0.306150 -0.351189 0.157200 0 127 127
-0.117988 -0.280493 -0.200308 0 127 127
0.198101 -0.553554 0.360487 76 0 153
0.300959 0.351552 0.179119 0 127 127
-0.148319 0.548690 -0.233174 0 127 127
-0.035697 -0.468791 -0.200308 0 127 127
-0.102756 -0.774315 -0.326718 0 127 127
-0.295349 -0.271306 0.269796 0 127 127
-0.301036 -0.250037 0.344213 76 0 153
0.056757 -0.809564 -0.326718 0 127 127
0.290349 -0.078157 -0.193380 0 127 127
0.306150 -0.174760 -0.166745 0 127 127
0.260667 0.362087 -0.055842 0 127 127
0.290349 0.853090 -0.208880 0 127 127
-0.311150 -0.379888 0.092141 0 127 127
-0.242779 0.858349 -0.119440 0 127 127
0.260159 0.873026 0.350111 76 0 153
0.016650 -0.058807 -0.326718 0 127 127
0.292240 -0.108600 0.344929 76 0 153
0.290349 0.496244 -0.037491 0 127 127
-0.245965 -0.348534 -0.200308 0 127 127
0.290349 -0.393868 0.042793 0 127 127
-0.247336 -0.915703 0.332804 76 0 153
0.290349 -0.332111 -0.114813 0 127 127
0.290349 0.231287 0.172487 0 127 127
-0.311150 -0.027045 0.315242 76 0 153
0.306150 -0.011690 0.338604 76 0 153
0.076883 0.874151 -0.120588 0 127 127
0.306150 -0.473409 0.187090 0 127 127
-0.311150 -0.850090 -0.060895 0 127 127
0.254180 0.198524 -0.326718 0 127 127
-0.118974 0.362087 -0.148286 0 127 127
0.306150 -0.651394 -0.254790 0 127 127
0.068899 0.855290 -0.233174 0 127 127
-0.153428 0.244529 -0.326718 0 127 127
-0.295349 -0.292819 0.055176 0 127 127
0.306150 0.744104 -0.257813 0 127 127
0.049743 0.786986 -0.326718 0 127 127
0.150951 -0.915703 0.128230 127 0 127
-0.198987 0.858349 0.058034 0 127 127
-0.295349 0.304775 0.160032 0 127 127
0.290349 -0.507009 0.273019 0 127 127
0.306150 0.263462 0.262865 0 127 127
0.258642 0.362087 0.181333 0 127 127
0.087597 0.874151 -0.239472 0 127 127
-0.059941 0.874045 0.335049 76 0 153
0.130948 0.362087 -0.080690 0 127 127
-0.295349 -0.401106 0.153198 0 127 127
-0.246505 0.696521 0.354020 76 0 153
0.043639 0.858349 -0.098976 0 127 127
-0.311150 -0.549497 0.249347 0 127 127
-0.133136 0.132225 -0.200308 0 127 127
-0.242606 -0.915703 0.090025 127 0 127
-0.112334 -0.880941 -0.316092 0 127 127
0.021941 0.858349 0.242961 0 127 127
0.290349 -0.329688 0.076758 0 127 127
0.306150 0.475599 0.006190 0 127 127
0.290349 -0.202637 0.121468 0 127 127
0.131733 0.495436 -0.233174 0 127 127
0.011717 0.337858 0.039730 0 127 127
0.006517 -0.187043 0.373649 76 0 153
0.154932 -0.638539 -0.200308 0 127 127
-0.280955 -0.798200 0.348001 76 0 153
0.120075 0.166817 -0.326718 0 127 127
-0.311150 0.686105 0.331125 76 0 153
-0.207954 0.337858 0.015939 0 127 127
-0.311150 -0.638184 -0.180895 0 127 127
0.291557 0.127194 0.321131 0 127 127
0.306150 0.713026 -0.149910 0 127 127
0.099992 -0.884101 -0.016981 0 127 127
0.290349 -0.554475 0.054615 0 127 127
0.306150 0.771988 -0.219205 0 127 127
-0.108468 0.348392 -0.232503 0 127 127
0.290349 0.719089 0.312773 0 127 127
0.306150 0.414757 -0.070897 0 127 127
0.274264 0.362087 -0.097127 0 127 127
0.088006 -0.884101 0.267608 0 127 127
-0.295349 -0.455080 0.240796 0 127 127
-0.279543 -0.915703 -0.268858 127 0 127
-0.131498 0.348392 -0.221395 0 127 127
-0.078522 -0.884101 0.072376 0 127 127
-0.295349 0.134388 0.111595 0 127 127
0.283858 -0.171958 -0.200308 0 127 127
0.191232 0.715695 0.361306 76 0 153
0.112740 0.386315 -0.311193 0 127 127
0.306150 0.175825 0.183756 0 127 127
-0.153629 0.858349 0.142129 0 127 127
0.284527 -0.941077 -0.222940 127 0 127
0.254703 -0.222583 0.351990 76 0 153
0.048576 0.348392 0.350199 76 0 153
0.290349 -0.453078 -0.114579 0 127 127
-0.166445 -0.915703 -0.202678 127 0 127
-0.052372 -0.232909 -0.326718 0 127 127
-0.295349 -0.736018 -0.055145 0 127 127
0.306150 -0.626686 -0.043120 0 127 127
0.130815 0.337858 -0.046629 0 127 127
-0.180556 -0.884101 0.318973 0 127 127
-0.311150 0.281803 0.129004 0 127 127
-0.220740 -0.884101 -0.146971 0 127 127
-0.311150 -0.234232 -0.249149 0 127 127
0.271387 0.433721 -0.326503 0 127 127
-0.280483 0.673389 0.340703 76 0 153
0.210983 0.337858 0.060601 0 127 127
0.156317 0.084086 0.365468 76 0 153
0.122644 0.426878 0.368454 76 0 153
-0.295349 0.009288 0.053746 0 127 127
-0.008919 -0.880941 -0.304647 0 127 127
0.306150 -0.749296 0.062764 0 127 127
-0.059247 -0.328289 0.372672 76 0 153
-0.295349 -0.692902 -0.111336 0 127 127
0.109022 0.362087 0.311814 0 127 127
-0.208682 0.362087 -0.012553 0 127 127
0.290349 -0.720077 -0.037790 0 127 127
-0.255246 0.782549 -0.233174 0 127 127
-0.013331 -0.884101 0.095968 0 127 127
0.306150 -0.379064 0.245782 0 127 127
0.290636 -0.000954 0.321131 76 0 153
-0.056501 0.362087 0.258177 0 127 127
-0.311150 -0.208242 -0.124503 0 127 127
0.181808 -0.567593 -0.326718 0 127 127
-0.250191 -0.722909 -0.326718 0 127 127
0.290349 -0.492385 0.072775 0 127 127
0.203119 -0.361948 0.359889 76 0 153
-0.161780 0.209760 -0.200308 0 127 127
0.201538 0.009911 -0.200308 0 127 127
0.235592 0.195344 0.354929 76 0 153
-0.311150 -0.655077 0.010676 0 127 127
0.198856 0.851686 -0.289848 0 127 127
0.048176 0.874151 0.278517 0 127 127
0.290349 -0.531139 0.135195 0 127 127
-0.295349 0.005783 -0.184015 0 127 127
-0.053776 -0.392131 -0.200308 0 127 127
0.221664 0.858349 -0.115109 0 127 127
0.271387 0.599961 -0.316528 0 127 127
-0.129255 0.362087 0.049189 0 127 127
0.290349 0.125136 0.120891 0 127 127
0.191317 0.337858 0.111272 0 127 127
-0.295349 0.002708 0.254808 0 127 127
-0.130124 0.858349 0.311752 0 127 127
-0.000271 0.431635 -0.326718 0 127 127
0.290349 0.374149 0.248225 0 127 127
-0.271280 -0.145079 -0.200308 0 127 127
-0.094114 0.362087 -0.040783 0 127 127
-0.194472 -0.915703 -0.241741 127 0 127
0.268839 0.116190 0.349343 76 0 153
-0.178899 0.874151 0.296102 0 127 127
-0.156773 0.337858 0.015992 0 127 127
0.290349 -0.514020 -0.179160 0 127 127
0.290349 -0.496735 0.224608 0 127 127
-0.311150 -0.535809 0.023094 0 127 127
0.035708 0.313630 -0.291934 0 127 127
-0.311150 -0.641228 0.224628 0 127 127
0.104893 0.362087 -0.182381 0 127 127
-0.203349 -0.252444 0.360457 76 0 153
0.306150 -0.372961 0.051251 0 127 127
0.176216 0.220726 -0.326718 0 127 127
0.226120 -0.713419 -0.326718 0 127 127
-0.311150 0.051439 0.064161 0 127 127
0.271752 0.337858 -0.084423 0 127 127
0.290349 0.798053 -0.213463 0 127 127
-0.070366 0.814990 -0.233174 0 127 127
0.103074 -0.645410 -0.326718 0 127 127
-0.188477 -0.915703 0.269643 127 0 127
0.284109 -0.425088 -0.200308 0 127 127
0.207929 0.858349 0.136014 0 127 127
-0.311150 -0.845444 0.042827 0 127 127
-0.311150 0.468147 0.023550 0 127 127
0.306150 0.171665 -0.138007 0 127 127
-0.165864 -0.664139 -0.326718 0 127 127
0.018350 0.858349 -0.150843 0 127 127
-0.264199 -0.884101 0.037917 0 127 127
-0.206859 0.362087 0.037936 0 127 127
-0.311150 0.812564 -0.182073 0 127 127
0.054451 -0.613755 -0.326718 0 127 127
0.183686 0.811723 -0.326718 0 127 127
0.290349 -0.266107 0.022605 0 127 127
0.093038 0.874151 0.301247 0 127 127
-0.295349 0.428254 0.086270 0 127 127
-0.311150 0.585499 -0.171321 0 127 127
-0.238537 0.189124 0.355244 76 0 153
0.162050 0.788794 0.364784 76 0 153
-0.295349 0.552320 -0.158432 0 127 127
0.240939 0.362087 -0.181236 0 127 127
0.250769 0.858349 -0.159024 0 127 127
-0.255087 0.337858 0.208491 0 127 127
0.196081 0.362087 -0.161000 0 127 127
-0.153032 -0.106793 -0.200308 0 127 127
0.241781 0.858349 0.114350 0 127 127
0.021292 -0.541011 0.373399 76 0 153
-0.245881 0.874151 0.141062 0 127 127
-0.311150 0.294941 0.259598 0 127 127
0.306150 0.417975 0.104584 0 127 127
-0.109949 -0.625882 -0.200308 0 127 127
-0.015930 0.337858 0.172839 0 127 127
0.290349 -0.823347 0.131513 0 127 127
-0.283764 -0.712344 -0.200308 0 127 127
-0.298177 0.675041 -0.289848 0 127 127
-0.266572 0.337858 0.301448 0 127 127
-0.074415 0.617021 -0.326718 0 127 127
-0.311150 -0.172423 0.047480 0 127 127
-0.102127 -0.915703 -0.013302 127 0 127
0.211891 -0.586083 0.358572 76 0 153
0.146260 -0.841991 -0.326718 0 127 127
-0.311150 0.284482 0.164114 0 127 127
0.290349 -0.541714 0.242275 0 127 127
-0.311150 0.032479 -0.264024 0 127 127
0.306150 -0.009499 0.061513 0 127 127
-0.311150 -0.014168 0.085412 0 127 127
0.209808 0.797465 0.358893 76 0 153
-0.295349 0.611634 0.072338 0 127 127
-0.295349 0.395923 -0.030997 0 127 127
-0.201920 0.577833 0.360627 76 0 153
0.091583 -0.029361 -0.326718 0 127 127
-0.295461 0.413198 0.321131 0 127 127
0.290349 0.031802 0.121692 0 127 127
0.290349 0.011750 0.227069 0 127 127
0.256325 -0.425337 -0.200308 0 127 127
-0.311150 0.180732 -0.090617 0 127 127
0.133430 0.277993 -0.200308 0 127 127
-0.311150 0.105199 -0.078301 0 127 127
-0.311150 -0.856051 -0.252318 0 127 127
-0.258154 0.483447 0.352229 76 0 153
0.044081 -0.693613 -0.200308 0 127 127
-0.007149 -0.168639 -0.326718 0 127 127
-0.295349 -0.303069 0.202167 0 127 127
0.290349 -0.099618 -0.177333 0 127 127
-0.265201 0.362087 -0.003087 0 127 127
-0.155842 0.874151 -0.251423 0 127 127
-0.217177 -0.884101 -0.027413 0 127 127
-0.295349 0.534455 -0.048916 0 127 127
0.220263 0.337858 0.268432 0 127 127
-0.295349 0.656849 -0.206216 0 127 127
0.306150 0.278257 0.178384 0 127 127
-0.295349 -0.735911 0.270978 0 127 127
-0.074337 -0.140178 -0.326718 0 127 127
0.284963 -0.884101 0.168879 0 127 127
-0.066516 -0.098053 -0.200308 0 127 127
-0.226823 0.476946 0.357045 76 0 153
0.212567 -0.884101 0.301882 0 127 127
-0.175022 -0.884101 -0.176735 0 127 127
-0.311150 -0.882481 -0.120286 0 127 127
-0.295349 0.481744 0.104945 0 127 127
0.306150 0.699423 0.105918 0 127 127
-0.251088 -0.884101 -0.087021 0 127 127
-0.295349 -0.333557 0.126292 0 127 127
0.306150 0.111763 0.032527 0 127 127
0.240660 -0.306289 0.354149 76 0 153
-0.311150 -0.361903 -0.119263 0 127 127
-0.118587 -0.672840 -0.200308 0 127 127
0.306150 0.324309 -0.140477 0 127 127
0.231035 -0.915703 0.062183 127 0 127
-0.295349 -0.863604 -0.164047 0 127 127
0.290349 -0.660855 0.303155 0 127 127
-0.292112 -0.600726 -0.289848 0 127 127
0.108498 0.479538 -0.326718 0 127 127
0.010555 -0.008473 0.373581 76 0 153
0.290349 -0.680790 -0.176160 0 127 127
0.290349 0.601188 0.075953 0 127 127
0.111516 -0.880941 -0.317123 0 127 127
-0.158679 -0.657387 -0.200308 0 127 127
0.184096 -0.857738 -0.326718 0 127 127
0.290349 -0.280707 0.213901 0 127 127
-0.253221 0.547537 -0.326718 0 127 127
-0.295349 0.733773 0.136602 0 127 127
0.290349 -0.466594 0.046247 0 127 127
-0.152007 0.337858 -0.068566 0 127 127
0.176406 0.210423 0.363073 76 0 153
0.202906 0.167723 -0.200308 0 127 127
0.290349 0.264242 0.163608 0 127 127
-0.267805 0.771246 -0.326718 0 127 127
-0.272560 -0.884101 -0.043853 0 127 127
-0.295349 -0.322985 -0.017579 0 127 127
-0.295349 0.794170 0.033270 0 127 127
-0.311150 0.819935 0.038687 0 127 127
-0.005772 0.243558 -0.200308 0 127 127
-0.276387 -0.880871 -0.319379 0 127 127
0.053590 -0.194201 -0.326718 0 127 127
0.306143 0.086935 0.339147 76 0 153
0.162789 0.391400 -0.233174 0 127 127
0.290349 -0.262830 -0.091364 0 127 127
-0.311150 -0.655729 0.245660 0 127 127
0.306150 -0.501627 -0.126577 0 127 127
0.290349 0.124636 -0.116295 0 127 127
0.185868 -0.915703 0.027422 127 0 127
-0.215224 0.362087 0.280751 0 127 127
-0.295349 0.395269 0.153254 0 127 127
-0.310728 -0.575062 0.340773 76 0 153
-0.267137 0.858349 -0.054521 0 127 127
-0.295349 0.569095 -0.131350 0 127 127
0.290349 -0.086254 0.130223 0 127 127
-0.311150 -0.113982 -0.014177 0 127 127
-0.311150 -0.421148 0.023109 0 127 127
0.031180 -0.909157 0.321131 127 0 127
-0.311150 -0.163979 -0.052676 0 127 127
-0.307716 -0.228870 -0.289848 0 127 127
0.290349 0.127323 0.282698 0 127 127
0.290349 0.324680 -0.026641 0 127 127
-0.147101 0.858349 0.075003 0 127 127
0.290349 -0.825086 0.097553 0 127 127
-0.033697 0.874151 0.208092 0 127 127
0.140888 -0.631761 0.366905 76 0 153
0.306150 -0.804361 -0.113484 0 127 127
0.070711 0.408446 -0.326718 0 127 127
-0.105956 0.732881 0.370295 76 0 153
0.306150 -0.761495 -0.026572 0 127 127
-0.311150 0.760894 -0.143940 0 127 127
-0.291643 0.005838 0.345985 76 0 153
0.048145 0.874151 0.253504 0 127 127
-0.280549 0.502145 0.370427 153 76 0
-0.140817 -0.915703 0.176989 127 0 127
0.294302 -0.576124 -0.289848 0 127 127
0.306150 0.619162 0.221642 0 127 127
0.306150 0.648000 -0.021860 0 127 127
-0.287456 0.874151 0.049150 0 127 127
-0.311150 0.543823 0.300771 0 127 127
-0.074936 -0.139508 -0.200308 0 127 127
0.087876 0.858349 0.087342 0 127 127
0.271387 -0.787094 -0.306328 0 127 127
-0.214362 -0.915703 -0.014144 127 0 127
-0.138653 0.664190 -0.326718 0 127 127
0.140424 0.326740 0.366944 76 0 153
-0.006776 0.858349 0.139824 0 127 127
-0.110121 0.310144 -0.200308 0 127 127
-0.311150 -0.844824 -0.130732 0 127 127
0.229420 0.348392 -0.074530 0 127 127
0.306150 0.257239 -0.255063 0 127 127
0.306150 0.261657 -0.179361 0 127 127
-0.026924 0.572620 -0.326718 0 127 127
-0.295349 -0.227431 0.265069 0 127 127
-0.311150 -0.396182 0.117661 0 127 127
0.142111 0.874045 0.358083 76 0 153
-0.090051 0.844433 0.371104 76 0 153
-0.100555 -0.718862 -0.326718 0 127 127
0.284527 -0.921795 0.295870 0 127 127
-0.295349 -0.175411 0.025514 0 127 127
-0.311150 0.698786 0.158373 0 127 127
-0.241177 -0.016675 0.354839 76 0 153
-0.311150 -0.522835 -0.236568 0 127 127
0.300828 -0.703761 0.343309 76 0 153
-0.001380 0.237201 -0.326718 0 127 127
0.027102 -0.915703 0.031257 127 0 127
-0.311150 -0.098493 0.149371 0 127 127
-0.213991 0.072359 -0.200308 0 127 127
0.216828 0.858349 0.218302 0 127 127
0.271387 0.730447 -0.322532 0 127 127
-0.311150 0.366192 0.079416 0 127 127
-0.295349 -0.640497 0.153855 0 127 127
-0.238154 -0.610862 -0.200308 0 127 127
0.046171 0.386315 -0.306855 0 127 127
0.290349 -0.402016 0.012436 0 127 127
0.306150 -0.877294 0.108642 0 127 127
0.280829 -0.915703 -0.081839 127 0 127
0.155664 -0.915703 -0.071120 127 0 127
-0.295349 0.114365 -0.015796 0 127 127
0.290349 0.436687 0.280246 0 127 127
0.009114 0.505030 0.373605 76 0 153
0.109051 -0.708135 0.369609 76 0 153
0.059923 -0.243042 -0.326718 0 127 127
0.306150 0.027292 0.011380 0 127 127
0.290349 -0.673516 0.145439 0 127 127
-0.198673 0.393831 -0.233174 0 127 127
-0.276387 -0.754291 -0.297993 0 127 127
0.290349 -0.540485 -0.058084 0 127 127
-0.241463 0.348392 0.085276 0 127 127
0.290349 -0.175240 0.108196 0 127 127
-0.295349 0.379439 -0.173642 0 127 127
0.290349 -0.673226 0.108944 0 127 127
0.149909 0.074591 -0.200308 0 127 127
0.290349 -0.548127 -0.156851 0 127 127
-0.019349 0.874151 -0.051333 0 127 127
0.290349 0.024703 0.263626 0 127 127
0.058234 0.351552 -0.270753 0 127 127
0.124027 0.858349 0.164183 0 127 127
0.306150 0.465073 0.240127 0 127 127
-0.095548 -0.768225 -0.200308 0 127 127
-0.023021 0.621957 -0.326718 0 127 127
-0.169062 0.604046 -0.233174 0 127 127
0.306150 -0.515476 0.029079 0 127 127
-0.063723 0.170723 -0.326718 0 127 127
0.270784 0.018192 0.348976 76 0 153
0.290349 0.168569 0.096720 0 127 127
0.306150 -0.523837 -0.266388 0 127 127
-0.295349 0.393528 0.097990 0 127 127
-0.295349 -0.330656 0.299152 0 127 127
-0.163980 0.362087 0.230574 0 127 127
-0.186115 0.360135 -0.289848 0 127 127
0.271037 -0.513661 -0.326718 0 127 127
-0.295349 -0.003840 0.278417 0 127 127
-0.129786 -0.749205 -0.200308 0 127 127
0.095115 -0.085170 -0.326718 0 127 127
-0.311150 0.146644 -0.044290 0 127 127
0.290349 -0.387859 0.114387 0 127 127
0.306150 0.176151 0.224164 0 127 127
0.046887 0.362087 0.064883 0 127 127
0.068659 -0.762526 0.371938 76 0 153
0.030008 -0.901950 -0.289848 0 127 127
0.180388 0.337858 -0.012211 0 127 127
-0.094394 -0.903866 0.321131 127 0 127
-0.021815 0.840779 0.373475 76 0 153
-0.280413 0.821663 -0.233174 0 127 127
-0.119598 -0.646843 -0.326718 0 127 127
0.306150 0.512129 -0.220302 0 127 127
0.134227 0.789960 -0.326718 0 127 127
-0.295349 0.262076 0.128745 0 127 127
0.238347 0.241950 -0.326718 0 127 127
0.071039 0.337858 0.108250 0 127 127
-0.295349 -0.066004 -0.090120 0 127 127
-0.141409 -0.372152 0.367285 76 0 153
0.290349 0.119941 -0.004578 0 127 127
-0.311150 0.173214 0.040197 0 127 127
-0.309160 0.766975 0.342423 76 0 153
0.271387 -0.131334 -0.325387 0 127 127
0.306150 0.561015 -0.190315 0 127 127
-0.311150 -0.679787 0.285073 0 127 127
-0.311150 -0.121428 -0.079264 0 127 127
-0.311150 -0.625751 0.260700 0 127 127
0.250315 -0.343290 -0.326718 0 127 127
-0.275569 0.204489 0.349017 76 0 153
0.290349 -0.695784 0.015174 0 127 127
0.306150 -0.891006 0.086915 0 127 127
-0.311150 0.814580 -0.276752 0 127 127
0.306150 0.844749 0.232770 0 127 127
-0.295349 -0.805130 -0.110602 0 127 127
-0.030095 0.874151 0.075034 0 127 127
0.306150 -0.808195 0.304754 0 127 127
-0.102733 -0.295682 -0.326718 0 127 127
0.306150 -0.348989 0.196412 0 127 127
-0.268324 0.141736 -0.200308 0 127 127
-0.093505 -0.884101 0.304635 0 127 127
0.304679 0.482796 0.323344 0 127 127
-0.045097 -0.575713 0.373080 76 0 153
0.306150 -0.788853 -0.153155 0 127 127
0.291288 0.147352 -0.289848 0 127 127
-0.020248 0.549605 0.373501 76 0 153
0.290349 -0.864899 -0.159931 0 127 127
-0.024085 -0.915703 0.190725 127 0 127
-0.311150 -0.678709 0.162261 0 127 127
0.306150 0.812257 0.144260 0 127 127
0.008313 -0.884101 0.203548 0 127 127
-0.093375 0.125869 -0.326718 0 127 127
-0.295349 -0.802200 0.233697 0 127 127
0.159016 -0.552895 -0.200308 0 127 127
-0.285171 -0.749257 0.347206 76 0 153
0.040012 -0.084129 -0.326718 0 127 127
-0.276387 -0.333724 -0.299825 0 127 127
0.306150 0.299836 0.244977 0 127 127
0.290349 0.079285 -0.008090 0 127 127
0.306150 -0.317818 -0.145310 0 127 127
-0.223487 0.337858 0.098439 0 127 127
-0.276387 -0.575216 -0.291235 0 127 127
-0.295349 -0.284960 -0.040641 0 127 127
0.190207 -0.031511 -0.200308 0 127 127
-0.311150 -0.565638 0.078826 0 127 127
0.043559 0.861417 0.321131 76 0 153
-0.295349 0.080526 -0.118889 0 127 127
0.245641 -0.626617 -0.200308 0 127 127
0.149818 -0.559541 0.366146 76 0 153
-0.053420 0.858349 -0.012018 0 127 127
-0.120310 0.858349 -0.106304 0 127 127
0.190670 -0.620186 0.361373 76 0 153
-0.185406 0.337858 -0.184943 0 127 127
-0.080694 0.499214 0.371580 76 0 153
-0.253349 0.734666 -0.233174 0 127 127
-0.311150 -0.227024 -0.191966 0 127 127
0.212299 0.362087 0.220626 0 127 127
0.219037 -0.272805 -0.200308 0 127 127
-0.311150 -0.738303 -0.130768 0 127 127
0.290295 -0.357267 -0.289848 0 127 127
0.002221 0.874151 0.100146 0 127 127
-0.295349 -0.411576 -0.021924 0 127 127
-0.295349 0.092783 0.168776 0 127 127
-0.311150 0.536798 -0.028941 0 127 127
-0.308060 -0.507869 0.342878 76 0 153
-0.311150 -0.554818 0.006758 0 127 127
0.205323 -0.629880 -0.200308 0 127 127
0.306150 0.627931 0.020809 0 127 127
-0.041439 0.689897 -0.233174 0 127 127
-0.026311 -0.619126 0.373398 76 0 153
-0.033500 -0.804502 -0.200308 0 127 127
0.306150 0.441244 -0.009024 0 127 127
0.051980 0.701453 -0.233174 0 127 127
-0.230748 0.151227 0.356442 76 0 153
-0.295349 -0.100770 0.215240 0 127 127
0.306150 0.017910 0.306639 0 127 127
-0.141974 -0.409023 -0.326718 0 127 127
0.270259 0.658529 0.349075 76 0 153
-0.244717 -0.491557 -0.326718 0 127 127
-0.295349 -0.666755 -0.164620 0 127 127
0.290349 0.437784 0.074534 0 127 127
-0.295349 -0.848270 0.266836 0 127 127
-0.035314 -0.687555 -0.200308 0 127 127
-0.050421 -0.915703 0.148104 127 0 127
-0.276504 -0.915703 0.135018 127 0 127
0.306150 0.488549 0.269800 0 127 127
-0.138263 -0.139625 0.367552 76 0 153
0.290349 -0.809394 0.029764 0 127 127
-0.007172 0.874151 -0.262800 0 127 127
-0.279840 0.456506 0.369657 153 76 0
0.306150 -0.754485 -0.146083 0 127 127
-0.259328 -0.138038 0.352048 153 0 76
0.177991 -0.859829 -0.200308 0 127 127
0.002105 -0.648757 -0.200308 0 127 127
-0.096319 -0.227953 -0.326718 0 127 127
-0.280881 -0.536725 -0.289848 0 127 127
-0.309771 0.715341 0.341977 76 0 153
-0.161238 0.745341 -0.326718 0 127 127
-0.091038 -0.664216 0.371054 76 0 153
-0.311150 0.700773 0.288330 0 127 127
-0.012439 0.858349 -0.217627 0 127 127
-0.231770 -0.915703 0.211082 127 0 127
0.283702 0.348392 0.061963 0 127 127
-0.295349 -0.152801 0.079870 0 127 127
0.306150 0.733763 0.262578 0 127 127
-0.104550 0.048620 0.370366 76 0 153
-0.281717 -0.507939 0.347857 76 0 153
-0.143038 -0.466978 -0.326718 0 127 127
-0.006636 0.647496 -0.326718 0 127 127
-0.311150 -0.816282 -0.250415 0 127 127
0.245921 0.151612 0.353341 76 0 153
0.298232 0.821278 0.343799 76 0 153
0.306150 -0.569634 0.127001 0 127 127
0.100302 -0.884101 -0.189955 0 127 127
0.289271 -0.884101 0.009066 0 127 127
-0.295349 0.668667 0.121268 0 127 127
0.291042 -0.915703 0.152875 127 0 127
-0.311150 0.589910 0.280664 0 127 127
-0.295349 0.456154 0.070148 0 127 127
0.264977 -0.915703 -0.063270 127 0 127
0.004167 0.858349 0.161404 0 127 127
0.011616 0.858349 -0.207410 0 127 127
0.282723 0.351552 0.161703 0 127 127
-0.251150 0.362087 -0.154650 0 127 127
0.290349 -0.489374 -0.054466 0 127 127
-0.121020 0.180254 0.369017 76 0 153
-0.072936 -0.290377 -0.200308 0 127 127
0.290349 -0.328342 0.157170 0 127 127
-0.072534 0.348392 0.355178 76 0 153
-0.106609 -0.878814 0.370241 76 0 153
-0.040688 -0.701337 0.373155 76 0 153
0.167447 -0.272076 -0.200308 0 127 127
0.156869 0.858349 0.318432 76 0 153
0.113448 0.337858 0.249226 0 127 127
0.306150 -0.091992 -0.246898 0 127 127
-0.146456 -0.786331 -0.200308 0 127 127
-0.151629 0.684782 0.366417 76 0 153
0.145499 0.433095 0.366513 76 0 153
-0.303939 0.348392 -0.058425 0 127 127
-0.311150 -0.362557 0.228964 0 127 127
0.043790 0.506147 -0.233174 0 127 127
0.290349 0.724028 0.168054 0 127 127
0.257106 0.337858 0.066433 0 127 127
-0.311150 -0.581957 -0.187643 0 127 127
0.267779 0.874151 -0.122339 0 127 127
0.168823 0.441545 -0.233174 0 127 127
0.290349 0.779195 -0.126442 0 127 127
-0.000126 -0.696925 0.373762 76 0 153
0.305978 -0.153652 0.323344 76 0 153
-0.215696 0.507715 0.358756 76 0 153
-0.272713 0.820867 0.349556 76 0 153
-0.029396 -0.238894 -0.326718 0 127 127
0.196575 0.617667 -0.233174 0 127 127
0.184915 -0.754401 -0.326718 0 127 127
0.290349 0.515258 0.188543 0 127 127
0.073141 -0.556802 0.371710 76 0 153
0.024916 0.334666 -0.289848 0 127 127
0.177422 -0.587383 -0.200308 0 127 127
-0.289192 -0.818348 -0.200308 0 127 127
-0.204203 0.646470 -0.233174 0 127 127
-0.295349 -0.108381 0.186973 0 127 127
-0.037739 -0.932210 0.315310 127 0 127
-0.311150 0.251413 0.063300 0 127 127
0.306150 -0.655657 -0.085124 0 127 127
0.004916 -0.431500 0.373676 76 0 153
0.189962 -0.251940 -0.326718 0 127 127
-0.060510 -0.939877 0.315310 127 0 127
0.290349 0.444206 0.149745 0 127 127
-0.139026 0.362087 0.232544 0 127 127
0.122852 -0.884101 0.138229 0 127 127
-0.145046 -0.915703 0.014463 127 0 127
-0.295349 -0.611930 -0.164905 0 127 127
0.079439 -0.668074 -0.200308 0 127 127
0.239286 -0.915703 0.181921 127 0 127
-0.311150 0.605453 0.036509 0 127 127
0.273063 0.101818 -0.289848 0 127 127
0.118395 -0.670300 -0.326718 0 127 127
-0.028075 -0.884101 0.280412 0 127 127
-0.065802 0.087272 -0.326718 0 127 127
0.290349 -0.081428 0.197274 0 127 127
-0.143468 -0.904308 0.321131 127 0 127
0.281561 -0.577958 -0.200308 0 127 127
0.290349 -0.500871 0.100223 0 127 127
0.290349 0.444056 -0.115856 0 127 127
-0.065792 0.072025 0.372339 76 0 153
0.265939 -0.884104 0.321131 0 127 127
0.252257 -0.767704 -0.200308 0 127 127
0.064385 -0.915703 -0.118892 127 0 127
0.104319 0.549642 0.370011 76 0 153
-0.295349 -0.533046 -0.067801 0 127 127
-0.276387 0.194203 -0.305937 0 127 127
0.306150 -0.648033 0.110298 0 127 127
0.009606 -0.125353 -0.200308 0 127 127
0.306150 0.424417 0.260433 0 127 127
0.148726 0.874151 -0.027348 0 127 127
0.244711 0.348392 -0.266402 0 127 127
0.081947 0.429904 -0.326718 0 127 127
-0.103631 -0.332507 0.370413 76 0 153
0.306150 0.320611 0.288906 0 127 127
0.230925 -0.884101 -0.065307 0 127 127
0.290349 -0.736395 0.163634 0 127 127
-0.256359 -0.884101 0.126948 0 127 127
0.124647 0.362087 0.030677 0 127 127
0.264200 -0.775956 0.350218 76 0 153
-0.295349 0.196004 -0.007139 0 127 127
0.290349 0.163312 -0.103162 0 127 127
0.306150 0.650381 0.122124 0 127 127
0.290349 0.752329 0.006615 0 127 127
-0.100045 0.085629 -0.326718 0 127 127
0.222110 0.034525 0.357001 76 0 153
-0.311150 -0.773381 0.101960 0 127 127
-0.201782 0.602079 0.360644 76 0 153
0.290349 -0.462371 0.156027 0 127 127
0.074578 -0.915703 -0.256769 127 0 127
0.290349 0.770685 -0.089467 0 127 127
0.306150 -0.180722 0.236861 0 127 127
0.072298 -0.915703 -0.042843 127 0 127
0.290349 -0.635092 -0.107985 0 127 127
-0.311150 -0.073219 -0.205308 0 127 127
-0.311150 0.604714 -0.053745 0 127 127
0.306150 0.212288 0.216710 0 127 127
-0.187038 0.098381 -0.326718 0 127 127
-0.295349 -0.043080 -0.070384 0 127 127
-0.295349 -0.177487 0.154041 0 127 127
-0.295349 0.003443 0.172654 0 127 127
0.103256 0.874151 0.256345 0 127 127
-0.311150 -0.039219 -0.283640 0 127 127
-0.295349 -0.375586 -0.194145 0 127 127
0.290349 0.110579 -0.043219 0 127 127
0.110424 0.010282 -0.326718 0 127 127
0.280739 0.874151 0.141535 0 127 127
0.290349 -0.715781 -0.176087 0 127 127
0.290349 0.208322 0.099100 0 127 127
0.303131 -0.226218 0.323344 76 0 153
0.306150 -0.825143 0.069500 0 127 127
0.046979 -0.884101 -0.024495 0 127 127
-0.311150 -0.184614 -0.123987 0 127 127
0.290349 0.538853 0.312493 0 127 127
0.290349 -0.845029 -0.095531 0 127 127
0.037913 0.874151 0.053146 0 127 127
-0.276387 -0.485425 -0.304774 0 127 127
-0.052446 0.717987 -0.326718 0 127 127
-0.157690 0.801206 0.365900 76 0 153
-0.027818 0.362087 0.080337 0 127 127
-0.037851 0.822028 0.373203 76 0 153
-0.168914 0.858349 0.117372 0 127 127
-0.311150 0.286819 -0.163616 0 127 127
0.306150 -0.691156 -0.149748 0 127 127
-0.017059 -0.401565 0.373555 76 0 153
0.290349 0.567202 -0.000525 0 127 127
-0.090816 -0.559548 0.371065 76 0 153
-0.311150 0.684196 0.231105 0 127 127
0.263094 -0.465995 -0.326718 0 127 127
0.197312 0.874151 -0.051028 0 127 127
0.037342 -0.567903 0.373127 76 0 153
-0.295349 -0.842167 -0.080212 0 127 127
-0.048421 -0.915703 0.265373 127 0 127
-0.311150 0.784642 0.224894 0 127 127
-0.288610 0.348392 0.300680 0 127 127
0.290349 0.186321 -0.166501 0 127 127
0.196752 0.055463 -0.326718 0 127 127
-0.311150 -0.784031 0.024606 0 127 127
-0.115029 0.410219 -0.233174 0 127 127
